0.386500 0.300155 -0.089000 0.000000 0.050980 0.090196
0.386614 0.302361 -0.090000 0.027451 0.090196 0.129412
0.386729 0.304573 -0.091000 0.039216 0.098039 0.149020
0.384923 0.127979 -0.093000 0.039216 0.094118 0.254902
0.384589 0.130160 -0.090000 0.000000 0.070588 0.313725
0.384366 0.132277 -0.088000 0.113725 0.227451 0.529412
0.384255 0.134341 -0.087000 0.000000 0.086275 0.356863
0.384255 0.136359 -0.087000 0.027451 0.082353 0.286275
0.384143 0.138414 -0.086000 0.000000 0.043137 0.258824
0.384477 0.140324 -0.089000 0.074510 0.207843 0.549020
0.384143 0.142444 -0.086000 0.011765 0.117647 0.466667
0.384255 0.144430 -0.087000 0.000000 0.098039 0.376471
0.384032 0.146501 -0.085000 0.000000 0.062745 0.333333
0.384366 0.148441 -0.088000 0.101961 0.231373 0.549020
0.384143 0.150504 -0.086000 0.000000 0.062745 0.352941
0.384143 0.152519 -0.086000 0.027451 0.086275 0.305882
0.383809 0.154582 -0.083000 0.000000 0.047059 0.274510
0.383920 0.156576 -0.084000 0.050980 0.196078 0.552941
0.384255 0.158554 -0.087000 0.066667 0.231373 0.600000
0.384255 0.198908 -0.087000 0.309804 0.494118 0.133333
0.384143 0.200879 -0.086000 0.635294 0.827451 0.466667
0.383920 0.202795 -0.084000 0.325490 0.525490 0.125490
0.383920 0.204804 -0.084000 0.321569 0.509804 0.133333
0.384032 0.206869 -0.085000 0.192157 0.376471 0.000000
0.384255 0.208997 -0.087000 0.670588 0.858824 0.450980
0.384255 0.211014 -0.087000 0.435294 0.615686 0.192157
0.384032 0.212906 -0.085000 0.411765 0.584314 0.168627
0.383809 0.214786 -0.083000 0.305882 0.478431 0.094118
0.383920 0.216861 -0.084000 0.662745 0.843137 0.458824
0.383920 0.218871 -0.084000 0.325490 0.517647 0.125490
0.383809 0.220806 -0.083000 0.352941 0.541176 0.133333
0.383920 0.224899 -0.084000 0.619608 0.819608 0.356863
0.384700 0.227485 -0.091000 0.690196 0.870588 0.423529
0.384477 0.275877 -0.089000 0.125490 0.462745 0.603922
0.384255 0.277599 -0.087000 0.078431 0.411765 0.592157
0.384143 0.279463 -0.086000 0.043137 0.376471 0.556863
0.384255 0.281634 -0.087000 0.023529 0.388235 0.572549
0.384143 0.283493 -0.086000 0.078431 0.482353 0.662745
0.384143 0.285508 -0.086000 0.066667 0.505882 0.709804
0.384143 0.287523 -0.086000 0.074510 0.513725 0.721569
0.384255 0.289705 -0.087000 0.078431 0.478431 0.666667
0.384143 0.291553 -0.086000 0.086275 0.466667 0.654902
0.384032 0.293396 -0.085000 0.203922 0.498039 0.674510
0.384032 0.295408 -0.085000 0.227451 0.529412 0.705882
0.384143 0.297598 -0.086000 0.282353 0.552941 0.737255
0.384255 0.299794 -0.087000 0.317647 0.572549 0.756863
0.384255 0.301811 -0.087000 0.305882 0.560784 0.745098
0.384366 0.304015 -0.088000 0.270588 0.513725 0.686275
0.384589 0.306413 -0.090000 0.470588 0.619608 0.780392
0.382997 0.127928 -0.094000 0.043137 0.098039 0.298039
0.382780 0.130062 -0.092000 0.031373 0.137255 0.431373
0.382563 0.132185 -0.090000 0.082353 0.192157 0.501961
0.382454 0.134255 -0.089000 0.000000 0.000000 0.262745
0.382454 0.136278 -0.089000 0.000000 0.003922 0.203922
0.382345 0.138339 -0.088000 0.000000 0.000000 0.196078
0.382345 0.140359 -0.088000 0.086275 0.231373 0.588235
0.382020 0.142477 -0.085000 0.015686 0.149020 0.521569
0.382020 0.144489 -0.085000 0.000000 0.121569 0.462745
0.382020 0.146501 -0.085000 0.000000 0.070588 0.403922
0.382345 0.148441 -0.088000 0.074510 0.196078 0.513725
0.382345 0.150461 -0.088000 0.000000 0.011765 0.270588
0.382237 0.152501 -0.087000 0.000000 0.027451 0.227451
0.381911 0.154566 -0.084000 0.000000 0.003922 0.219608
0.382237 0.158554 -0.087000 0.074510 0.247059 0.615686
0.382345 0.198952 -0.088000 0.380392 0.572549 0.141176
0.382237 0.206979 -0.087000 0.215686 0.392157 0.000000
0.382345 0.209054 -0.088000 0.686275 0.874510 0.419608
0.382237 0.211014 -0.087000 0.537255 0.717647 0.258824
0.381911 0.212842 -0.084000 0.427451 0.607843 0.160784
0.381476 0.214588 -0.080000 0.580392 0.756863 0.325490
0.381585 0.216655 -0.081000 0.203922 0.388235 0.000000
0.381694 0.218728 -0.082000 0.290196 0.470588 0.121569
0.381802 0.220806 -0.083000 0.270588 0.439216 0.109804
0.381694 0.222736 -0.082000 0.439216 0.623529 0.223529
0.381802 0.224820 -0.083000 0.674510 0.862745 0.415686
0.382454 0.227321 -0.089000 0.772549 0.894118 0.635294
0.383106 0.274724 -0.095000 0.035294 0.243137 0.301961
0.382454 0.275877 -0.089000 0.054902 0.392157 0.533333
0.382128 0.277448 -0.086000 0.000000 0.278431 0.443137
0.382020 0.279310 -0.085000 0.141176 0.482353 0.670588
0.382128 0.281478 -0.086000 0.231373 0.592157 0.784314
0.382237 0.283652 -0.087000 0.180392 0.564706 0.764706
0.382237 0.285670 -0.087000 0.117647 0.560784 0.752941
0.382020 0.287359 -0.085000 0.015686 0.458824 0.650980
0.382020 0.289371 -0.085000 0.035294 0.423529 0.611765
0.382020 0.291383 -0.085000 0.039216 0.400000 0.592157
0.382020 0.293396 -0.085000 0.000000 0.345098 0.533333
0.382020 0.295408 -0.085000 0.000000 0.254902 0.450980
0.382128 0.297598 -0.086000 0.000000 0.337255 0.537255
0.382128 0.299613 -0.086000 0.066667 0.482353 0.678431
0.382128 0.301628 -0.086000 0.031373 0.509804 0.713725
0.382128 0.303643 -0.086000 0.086275 0.545098 0.752941
0.382237 0.305847 -0.087000 0.313725 0.654902 0.847059
0.382889 0.309014 -0.093000 0.062745 0.129412 0.152941
0.380960 0.125891 -0.094000 0.062745 0.086275 0.098039
0.380643 0.128082 -0.091000 0.007843 0.090196 0.301961
0.380643 0.130111 -0.091000 0.043137 0.164706 0.482353
0.380537 0.132185 -0.090000 0.007843 0.145098 0.505882
0.380537 0.134211 -0.090000 0.043137 0.188235 0.545098
0.380537 0.136237 -0.090000 0.000000 0.164706 0.533333
0.380431 0.138301 -0.089000 0.062745 0.235294 0.607843
0.380219 0.140394 -0.087000 0.031373 0.192157 0.584314
0.380113 0.142444 -0.086000 0.015686 0.156863 0.552941
0.380007 0.144489 -0.085000 0.015686 0.152941 0.513725
0.380113 0.146474 -0.086000 0.015686 0.152941 0.509804
0.380325 0.148441 -0.088000 0.015686 0.152941 0.513725
0.380325 0.150461 -0.088000 0.015686 0.168627 0.521569
0.380219 0.152501 -0.087000 0.000000 0.074510 0.435294
0.379901 0.154566 -0.084000 0.062745 0.215686 0.592157
0.379901 0.156576 -0.084000 0.023529 0.200000 0.592157
0.380219 0.158554 -0.087000 0.070588 0.250980 0.631373
0.380960 0.160517 -0.094000 0.000000 0.054902 0.352941
0.380325 0.198952 -0.088000 0.615686 0.800000 0.329412
0.380219 0.206979 -0.087000 0.698039 0.878431 0.419608
0.380325 0.209054 -0.088000 0.650980 0.839216 0.337255
0.380219 0.211014 -0.087000 0.623529 0.803922 0.325490
0.380007 0.212906 -0.085000 0.592157 0.772549 0.294118
0.379901 0.218871 -0.084000 0.121569 0.294118 0.000000
0.380219 0.221103 -0.087000 0.129412 0.290196 0.000000
0.380113 0.223044 -0.086000 0.698039 0.882353 0.443137
0.380219 0.225138 -0.087000 0.658824 0.835294 0.376471
0.380431 0.227321 -0.089000 0.745098 0.850980 0.623529
0.380749 0.274289 -0.092000 0.058824 0.309804 0.411765
0.380113 0.275433 -0.086000 0.035294 0.349020 0.509804
0.379901 0.277147 -0.084000 0.000000 0.278431 0.450980
0.380007 0.279310 -0.085000 0.160784 0.556863 0.741176
0.380219 0.281634 -0.087000 0.000000 0.337255 0.529412
0.380325 0.283811 -0.088000 0.000000 0.333333 0.545098
0.380431 0.285993 -0.089000 0.078431 0.494118 0.698039
0.380325 0.287851 -0.088000 0.011765 0.443137 0.647059
0.380113 0.289538 -0.086000 0.000000 0.368627 0.564706
0.380113 0.291553 -0.086000 0.000000 0.352941 0.552941
0.380113 0.293568 -0.086000 0.000000 0.247059 0.443137
0.380113 0.295583 -0.086000 0.243137 0.596078 0.796078
0.380219 0.297776 -0.087000 0.000000 0.368627 0.576471
0.380325 0.299974 -0.088000 0.027451 0.447059 0.658824
0.380219 0.301811 -0.087000 0.078431 0.560784 0.776471
0.380325 0.304015 -0.088000 0.054902 0.533333 0.737255
0.380431 0.306224 -0.089000 0.305882 0.647059 0.839216
0.381066 0.309397 -0.095000 0.054902 0.121569 0.145098
0.379130 0.125783 -0.096000 0.062745 0.090196 0.101961
0.378511 0.128134 -0.090000 0.019608 0.105882 0.333333
0.378408 0.130208 -0.089000 0.054902 0.188235 0.529412
0.378408 0.132231 -0.089000 0.019608 0.164706 0.549020
0.378511 0.134211 -0.090000 0.023529 0.176471 0.560784
0.378408 0.136278 -0.089000 0.023529 0.192157 0.584314
0.378305 0.138339 -0.088000 0.007843 0.176471 0.568627
0.378201 0.140394 -0.087000 0.015686 0.168627 0.560784
0.378098 0.142444 -0.086000 0.023529 0.164706 0.560784
0.377995 0.144489 -0.085000 0.027451 0.168627 0.545098
0.378201 0.146447 -0.087000 0.039216 0.172549 0.545098
0.378305 0.148441 -0.088000 0.031373 0.184314 0.568627
0.378305 0.150461 -0.088000 0.027451 0.180392 0.572549
0.378201 0.152501 -0.087000 0.031373 0.192157 0.584314
0.378201 0.154518 -0.087000 0.015686 0.184314 0.576471
0.378098 0.156549 -0.086000 0.015686 0.192157 0.584314
0.378408 0.158533 -0.089000 0.070588 0.243137 0.615686
0.378923 0.160517 -0.094000 0.000000 0.062745 0.345098
0.378201 0.206979 -0.087000 0.654902 0.847059 0.313725
0.378201 0.208997 -0.087000 0.650980 0.843137 0.317647
0.378201 0.211014 -0.087000 0.643137 0.823529 0.313725
0.377995 0.212906 -0.085000 0.631373 0.807843 0.309804
0.377892 0.214852 -0.084000 0.623529 0.811765 0.301961
0.377995 0.216930 -0.085000 0.619608 0.811765 0.294118
0.378098 0.219014 -0.086000 0.670588 0.854902 0.360784
0.378305 0.221177 -0.088000 0.690196 0.874510 0.380392
0.378201 0.223120 -0.087000 0.662745 0.858824 0.341176
0.378305 0.225218 -0.088000 0.658824 0.843137 0.356863
0.378408 0.227321 -0.089000 0.568627 0.670588 0.466667
0.378614 0.274144 -0.091000 0.082353 0.349020 0.443137
0.378098 0.275433 -0.086000 0.047059 0.360784 0.521569
0.377995 0.277298 -0.085000 0.058824 0.431373 0.615686
0.378201 0.279616 -0.087000 0.000000 0.364706 0.552941
0.378305 0.281790 -0.088000 0.011765 0.325490 0.529412
0.378408 0.283969 -0.089000 0.000000 0.278431 0.501961
0.378408 0.285993 -0.089000 0.000000 0.368627 0.580392
0.378201 0.287687 -0.087000 0.086275 0.529412 0.733333
0.377995 0.289371 -0.085000 0.000000 0.372549 0.580392
0.377995 0.291383 -0.085000 0.000000 0.349020 0.560784
0.378098 0.293568 -0.086000 0.078431 0.462745 0.662745
0.378305 0.295933 -0.088000 0.015686 0.407843 0.607843
0.378201 0.297776 -0.087000 0.015686 0.345098 0.556863
0.378201 0.299794 -0.087000 0.003922 0.321569 0.541176
0.378201 0.301811 -0.087000 0.000000 0.368627 0.580392
0.378305 0.304015 -0.088000 0.137255 0.580392 0.784314
0.378511 0.306413 -0.090000 0.278431 0.631373 0.823529
0.377188 0.125728 -0.097000 0.062745 0.090196 0.098039
0.376485 0.128134 -0.090000 0.019608 0.117647 0.333333
0.376385 0.130208 -0.089000 0.050980 0.172549 0.494118
0.376485 0.132185 -0.090000 0.035294 0.168627 0.513725
0.376485 0.134211 -0.090000 0.050980 0.188235 0.545098
0.376385 0.136278 -0.089000 0.050980 0.184314 0.560784
0.376184 0.138377 -0.087000 0.043137 0.184314 0.560784
0.376184 0.140394 -0.087000 0.043137 0.176471 0.552941
0.376184 0.142412 -0.087000 0.023529 0.156863 0.529412
0.376184 0.144430 -0.087000 0.015686 0.152941 0.513725
0.376083 0.146474 -0.086000 0.031373 0.168627 0.529412
0.375983 0.148513 -0.085000 0.039216 0.176471 0.537255
0.375983 0.150526 -0.085000 0.039216 0.172549 0.545098
0.376083 0.152519 -0.086000 0.039216 0.184314 0.560784
0.376284 0.154502 -0.088000 0.035294 0.188235 0.564706
0.376284 0.156523 -0.088000 0.019608 0.180392 0.564706
0.376585 0.158512 -0.091000 0.098039 0.262745 0.631373
0.376987 0.160509 -0.095000 0.000000 0.043137 0.321569
0.376184 0.208997 -0.087000 0.631373 0.819608 0.309804
0.376184 0.211014 -0.087000 0.623529 0.811765 0.309804
0.376184 0.213032 -0.087000 0.631373 0.819608 0.317647
0.376284 0.215116 -0.088000 0.635294 0.823529 0.321569
0.376385 0.217205 -0.089000 0.635294 0.819608 0.325490
0.376385 0.219228 -0.089000 0.650980 0.839216 0.329412
0.376284 0.221177 -0.088000 0.647059 0.835294 0.333333
0.376184 0.223120 -0.087000 0.635294 0.827451 0.309804
0.376385 0.225297 -0.089000 0.674510 0.858824 0.364706
0.376686 0.227568 -0.092000 0.376471 0.490196 0.305882
0.376585 0.274144 -0.091000 0.023529 0.364706 0.482353
0.376184 0.275581 -0.087000 0.109804 0.513725 0.694118
0.376083 0.277448 -0.086000 0.000000 0.372549 0.564706
0.376385 0.279923 -0.089000 0.047059 0.486275 0.690196
0.376585 0.282258 -0.091000 0.000000 0.141176 0.364706
0.376585 0.284287 -0.091000 0.000000 0.176471 0.400000
0.376485 0.286154 -0.090000 0.070588 0.482353 0.694118
0.376184 0.287687 -0.087000 0.074510 0.560784 0.764706
0.376083 0.289538 -0.086000 0.043137 0.458824 0.662745
0.375983 0.291383 -0.085000 0.000000 0.372549 0.588235
0.376184 0.293740 -0.087000 0.117647 0.509804 0.717647
0.376385 0.296108 -0.089000 0.000000 0.203922 0.411765
0.376284 0.297954 -0.088000 0.000000 0.227451 0.450980
0.376184 0.299794 -0.087000 0.000000 0.176471 0.400000
0.376083 0.301628 -0.086000 0.000000 0.400000 0.611765
0.376385 0.304201 -0.089000 0.203922 0.619608 0.823529
0.376686 0.306791 -0.092000 0.192157 0.525490 0.713725
0.374459 0.128134 -0.090000 0.023529 0.105882 0.317647
0.374264 0.130257 -0.088000 0.023529 0.125490 0.431373
0.374361 0.132231 -0.089000 0.007843 0.117647 0.450980
0.374459 0.134211 -0.090000 0.000000 0.113725 0.462745
0.374459 0.136237 -0.090000 0.000000 0.133333 0.494118
0.374264 0.138339 -0.088000 0.000000 0.133333 0.505882
0.374166 0.140394 -0.087000 0.011765 0.141176 0.501961
0.374068 0.142444 -0.086000 0.011765 0.141176 0.498039
0.374068 0.144459 -0.086000 0.007843 0.121569 0.470588
0.374068 0.146474 -0.086000 0.003922 0.117647 0.466667
0.374068 0.148489 -0.086000 0.000000 0.121569 0.470588
0.373971 0.150526 -0.085000 0.011765 0.141176 0.498039
0.374166 0.152501 -0.087000 0.011765 0.145098 0.517647
0.374459 0.154470 -0.090000 0.023529 0.172549 0.541176
0.374557 0.156483 -0.091000 0.019608 0.184314 0.556863
0.374948 0.158470 -0.095000 0.058824 0.223529 0.592157
0.374459 0.205118 -0.090000 0.576471 0.760784 0.274510
0.374459 0.207144 -0.090000 0.580392 0.764706 0.270588
0.374264 0.209054 -0.088000 0.584314 0.764706 0.286275
0.374166 0.211014 -0.087000 0.537255 0.717647 0.247059
0.374166 0.213032 -0.087000 0.529412 0.713725 0.243137
0.374264 0.215116 -0.088000 0.588235 0.772549 0.301961
0.374361 0.217205 -0.089000 0.627451 0.811765 0.341176
0.374459 0.219299 -0.090000 0.623529 0.811765 0.309804
0.374361 0.221251 -0.089000 0.635294 0.823529 0.313725
0.374166 0.223120 -0.087000 0.627451 0.819608 0.309804
0.374264 0.225218 -0.088000 0.694118 0.878431 0.392157
0.374654 0.227568 -0.092000 0.090196 0.200000 0.039216
0.374850 0.274579 -0.094000 0.062745 0.431373 0.552941
0.374557 0.276172 -0.091000 0.078431 0.545098 0.725490
0.374557 0.278201 -0.091000 0.050980 0.549020 0.752941
0.374654 0.280383 -0.092000 0.066667 0.560784 0.764706
0.374654 0.282414 -0.092000 0.105882 0.541176 0.760784
0.374557 0.284287 -0.091000 0.184314 0.600000 0.827451
0.374361 0.285993 -0.089000 0.098039 0.639216 0.854902
0.374166 0.287687 -0.087000 0.019608 0.572549 0.784314
0.373971 0.289371 -0.085000 0.000000 0.537255 0.752941
0.374068 0.291553 -0.086000 0.023529 0.537255 0.752941
0.374264 0.293913 -0.088000 0.000000 0.419608 0.635294
0.374459 0.296284 -0.090000 0.113725 0.572549 0.788235
0.374361 0.298132 -0.089000 0.000000 0.133333 0.360784
0.374361 0.300155 -0.089000 0.000000 0.262745 0.478431
0.374166 0.301811 -0.087000 0.137255 0.631373 0.835294
0.374264 0.304015 -0.088000 0.239216 0.682353 0.866667
0.374459 0.306413 -0.090000 0.133333 0.356863 0.509804
0.373003 0.125783 -0.096000 0.058824 0.086275 0.094118
0.372433 0.128134 -0.090000 0.058824 0.113725 0.317647
0.372243 0.130257 -0.088000 0.007843 0.078431 0.376471
0.372338 0.132231 -0.089000 0.000000 0.054902 0.360784
0.372433 0.134211 -0.090000 0.105882 0.207843 0.517647
0.372433 0.136237 -0.090000 0.090196 0.196078 0.529412
0.372243 0.138339 -0.088000 0.058824 0.160784 0.509804
0.372243 0.140359 -0.088000 0.031373 0.129412 0.462745
0.372053 0.142444 -0.086000 0.000000 0.098039 0.423529
0.372053 0.144459 -0.086000 0.000000 0.098039 0.415686
0.371958 0.146501 -0.085000 0.000000 0.074510 0.380392
0.372148 0.148465 -0.087000 0.000000 0.050980 0.360784
0.372053 0.150504 -0.086000 0.066667 0.168627 0.486275
0.372243 0.152482 -0.088000 0.047059 0.164706 0.505882
0.372528 0.154454 -0.091000 0.019608 0.152941 0.498039
0.372718 0.156457 -0.093000 0.011765 0.156863 0.517647
0.372433 0.207144 -0.090000 0.541176 0.725490 0.247059
0.372243 0.209054 -0.088000 0.490196 0.674510 0.203922
0.372528 0.211256 -0.091000 0.454902 0.635294 0.180392
0.372718 0.213411 -0.093000 0.458824 0.639216 0.192157
0.372813 0.215511 -0.094000 0.337255 0.529412 0.090196
0.372623 0.217411 -0.092000 0.321569 0.509804 0.062745
0.372718 0.219513 -0.093000 0.498039 0.682353 0.211765
0.372718 0.221548 -0.093000 0.568627 0.756863 0.262745
0.372433 0.223351 -0.090000 0.596078 0.788235 0.278431
0.372338 0.225297 -0.089000 0.698039 0.882353 0.396078
0.372718 0.227650 -0.093000 0.031373 0.121569 0.000000
0.373098 0.272969 -0.097000 0.054902 0.254902 0.305882
0.372718 0.274434 -0.093000 0.094118 0.450980 0.596078
0.372433 0.276025 -0.090000 0.101961 0.572549 0.772549
0.372528 0.278201 -0.091000 0.027451 0.568627 0.776471
0.372433 0.280076 -0.090000 0.054902 0.584314 0.800000
0.372433 0.282102 -0.090000 0.039216 0.592157 0.803922
0.372433 0.284128 -0.090000 0.043137 0.596078 0.807843
0.372433 0.286154 -0.090000 0.031373 0.584314 0.796078
0.372243 0.287851 -0.088000 0.019608 0.580392 0.792157
0.372148 0.289705 -0.087000 0.023529 0.564706 0.780392
0.372243 0.291892 -0.088000 0.027451 0.564706 0.780392
0.372433 0.294258 -0.090000 0.039216 0.568627 0.784314
0.372433 0.296284 -0.090000 0.043137 0.572549 0.788235
0.372433 0.298309 -0.090000 0.101961 0.615686 0.831373
0.372338 0.300155 -0.089000 0.070588 0.592157 0.803922
0.372243 0.301995 -0.088000 0.054902 0.580392 0.780392
0.372338 0.304201 -0.089000 0.223529 0.690196 0.866667
0.372623 0.306791 -0.092000 0.023529 0.227451 0.349020
0.370961 0.125783 -0.096000 0.058824 0.086275 0.094118
0.370223 0.128237 -0.088000 0.066667 0.117647 0.305882
0.370038 0.130354 -0.086000 0.007843 0.070588 0.376471
0.370038 0.132369 -0.086000 0.109804 0.223529 0.541176
0.370315 0.134255 -0.089000 0.000000 0.047059 0.352941
0.370315 0.136278 -0.089000 0.000000 0.043137 0.352941
0.370223 0.138339 -0.088000 0.000000 0.066667 0.376471
0.370223 0.140359 -0.088000 0.047059 0.141176 0.490196
0.370038 0.142444 -0.086000 0.000000 0.094118 0.411765
0.370131 0.144430 -0.087000 0.000000 0.082353 0.392157
0.370038 0.146474 -0.086000 0.000000 0.062745 0.368627
0.370223 0.148441 -0.088000 0.125490 0.254902 0.572549
0.370223 0.150461 -0.088000 0.000000 0.062745 0.368627
0.370315 0.152463 -0.089000 0.000000 0.058824 0.376471
0.370499 0.154454 -0.091000 0.047059 0.152941 0.498039
0.370407 0.209170 -0.090000 0.482353 0.674510 0.211765
0.370684 0.211377 -0.093000 0.403922 0.584314 0.160784
0.370868 0.217617 -0.095000 0.654902 0.850980 0.443137
0.370961 0.219728 -0.096000 0.443137 0.639216 0.223529
0.370776 0.221622 -0.094000 0.615686 0.803922 0.349020
0.370592 0.223505 -0.092000 0.600000 0.792157 0.282353
0.370407 0.225377 -0.090000 0.709804 0.890196 0.411765
0.370684 0.227650 -0.093000 0.019608 0.101961 0.000000
0.370684 0.272400 -0.093000 0.047059 0.243137 0.305882
0.370407 0.273999 -0.090000 0.098039 0.458824 0.615686
0.370223 0.275729 -0.088000 0.043137 0.494118 0.698039
0.370407 0.278050 -0.090000 0.035294 0.560784 0.760784
0.370223 0.279770 -0.088000 0.035294 0.572549 0.788235
0.370131 0.281634 -0.087000 0.047059 0.584314 0.800000
0.370223 0.283811 -0.088000 0.031373 0.572549 0.788235
0.370315 0.285993 -0.089000 0.039216 0.568627 0.784314
0.370315 0.288016 -0.089000 0.035294 0.556863 0.772549
0.370315 0.290039 -0.089000 0.043137 0.545098 0.764706
0.370223 0.291892 -0.088000 0.043137 0.545098 0.764706
0.370223 0.293913 -0.088000 0.035294 0.564706 0.780392
0.370223 0.295933 -0.088000 0.031373 0.572549 0.788235
0.370315 0.298132 -0.089000 0.019608 0.572549 0.784314
0.370315 0.300155 -0.089000 0.019608 0.580392 0.792157
0.370315 0.302178 -0.089000 0.035294 0.564706 0.776471
0.370315 0.304201 -0.089000 0.231373 0.686275 0.870588
0.370592 0.306791 -0.092000 0.000000 0.129412 0.231373
0.368829 0.125837 -0.095000 0.062745 0.086275 0.098039
0.368292 0.128185 -0.089000 0.066667 0.125490 0.313725
0.368023 0.130354 -0.086000 0.000000 0.086275 0.396078
0.368113 0.132323 -0.087000 0.000000 0.062745 0.388235
0.368292 0.134255 -0.089000 0.000000 0.047059 0.345098
0.368292 0.136278 -0.089000 0.039216 0.074510 0.290196
0.368202 0.138339 -0.088000 0.000000 0.019608 0.250980
0.368113 0.140394 -0.087000 0.023529 0.152941 0.509804
0.368023 0.142444 -0.086000 0.000000 0.098039 0.443137
0.368202 0.144400 -0.088000 0.000000 0.082353 0.407843
0.368113 0.146447 -0.087000 0.000000 0.070588 0.388235
0.368202 0.148441 -0.088000 0.062745 0.152941 0.474510
0.368202 0.150461 -0.088000 0.015686 0.066667 0.360784
0.368292 0.152463 -0.089000 0.031373 0.082353 0.298039
0.368381 0.154470 -0.090000 0.000000 0.031373 0.286275
0.368560 0.209285 -0.092000 0.490196 0.674510 0.203922
0.368829 0.217617 -0.095000 0.329412 0.533333 0.125490
0.368739 0.225695 -0.094000 0.733333 0.909804 0.454902
0.368471 0.272115 -0.091000 0.035294 0.239216 0.305882
0.368381 0.273999 -0.090000 0.090196 0.439216 0.588235
0.368202 0.275729 -0.088000 0.039216 0.447059 0.635294
0.368471 0.278201 -0.091000 0.000000 0.431373 0.635294
0.368202 0.279770 -0.088000 0.003922 0.462745 0.670588
0.368202 0.281790 -0.088000 0.000000 0.501961 0.713725
0.368292 0.283969 -0.089000 0.011765 0.533333 0.749020
0.368471 0.286316 -0.091000 0.011765 0.525490 0.741176
0.368471 0.288344 -0.091000 0.000000 0.494118 0.713725
0.368471 0.290373 -0.091000 0.003922 0.466667 0.690196
0.368292 0.292062 -0.089000 0.000000 0.454902 0.678431
0.368202 0.293913 -0.088000 0.000000 0.494118 0.713725
0.368113 0.295758 -0.087000 0.007843 0.509804 0.729412
0.368202 0.297954 -0.088000 0.015686 0.552941 0.768627
0.368202 0.299974 -0.088000 0.011765 0.552941 0.768627
0.368292 0.302178 -0.089000 0.047059 0.560784 0.776471
0.368471 0.304573 -0.091000 0.184314 0.627451 0.831373
0.368829 0.307357 -0.095000 0.000000 0.101961 0.203922
0.366789 0.125837 -0.095000 0.066667 0.090196 0.101961
0.366182 0.128237 -0.088000 0.101961 0.176471 0.396078
0.366095 0.130306 -0.087000 0.000000 0.090196 0.407843
0.366182 0.132277 -0.088000 0.023529 0.141176 0.474510
0.366355 0.134211 -0.090000 0.000000 0.000000 0.239216
0.366355 0.136237 -0.090000 0.000000 0.000000 0.196078
0.366182 0.138339 -0.088000 0.054902 0.172549 0.505882
0.366095 0.140394 -0.087000 0.031373 0.180392 0.549020
0.366095 0.142412 -0.087000 0.011765 0.133333 0.482353
0.366269 0.144370 -0.089000 0.000000 0.117647 0.466667
0.366182 0.146421 -0.088000 0.000000 0.070588 0.403922
0.366182 0.148441 -0.088000 0.066667 0.168627 0.474510
0.366182 0.150461 -0.088000 0.000000 0.000000 0.227451
0.366269 0.152463 -0.089000 0.000000 0.003922 0.203922
0.366355 0.154470 -0.090000 0.000000 0.003922 0.247059
0.366529 0.209285 -0.092000 0.607843 0.796078 0.286275
0.366703 0.211438 -0.094000 0.501961 0.682353 0.211765
0.366616 0.217479 -0.093000 0.298039 0.494118 0.117647
0.366963 0.225934 -0.097000 0.694118 0.862745 0.439216
0.366529 0.272258 -0.092000 0.035294 0.235294 0.286275
0.366355 0.273999 -0.090000 0.117647 0.443137 0.588235
0.366182 0.275729 -0.088000 0.023529 0.368627 0.541176
0.366442 0.278201 -0.091000 0.000000 0.270588 0.458824
0.366355 0.280076 -0.090000 0.133333 0.494118 0.686275
0.366355 0.282102 -0.090000 0.184314 0.568627 0.776471
0.366355 0.284128 -0.090000 0.133333 0.545098 0.764706
0.366355 0.286154 -0.090000 0.050980 0.486275 0.705882
0.366355 0.288180 -0.090000 0.015686 0.443137 0.662745
0.366355 0.290206 -0.090000 0.015686 0.407843 0.619608
0.366269 0.292062 -0.089000 0.027451 0.392157 0.607843
0.366269 0.294085 -0.089000 0.000000 0.298039 0.513725
0.366095 0.295758 -0.087000 0.000000 0.329412 0.545098
0.366182 0.297954 -0.088000 0.054902 0.505882 0.721569
0.366182 0.299974 -0.088000 0.031373 0.521569 0.737255
0.366182 0.301995 -0.088000 0.027451 0.521569 0.741176
0.366355 0.304387 -0.090000 0.211765 0.635294 0.839216
0.366703 0.307168 -0.094000 0.000000 0.074510 0.235294
0.364750 0.125837 -0.095000 0.066667 0.090196 0.101961
0.364330 0.128134 -0.090000 0.066667 0.180392 0.443137
0.364245 0.130208 -0.089000 0.023529 0.160784 0.521569
0.364330 0.132185 -0.090000 0.019608 0.168627 0.529412
0.364414 0.134168 -0.091000 0.039216 0.196078 0.556863
0.364330 0.136237 -0.090000 0.035294 0.203922 0.588235
0.364245 0.138301 -0.089000 0.050980 0.211765 0.603922
0.364161 0.140359 -0.088000 0.019608 0.180392 0.572549
0.364245 0.142347 -0.089000 0.015686 0.168627 0.552941
0.364161 0.144400 -0.088000 0.015686 0.164706 0.525490
0.364245 0.146394 -0.089000 0.015686 0.160784 0.521569
0.364245 0.148417 -0.089000 0.023529 0.168627 0.537255
0.364245 0.150440 -0.089000 0.035294 0.184314 0.545098
0.364330 0.152444 -0.090000 0.000000 0.149020 0.505882
0.364414 0.154454 -0.091000 0.050980 0.223529 0.596078
0.364498 0.156470 -0.092000 0.027451 0.207843 0.588235
0.364498 0.209285 -0.092000 0.623529 0.815686 0.282353
0.364666 0.211438 -0.094000 0.588235 0.780392 0.254902
0.364666 0.213474 -0.094000 0.564706 0.749020 0.262745
0.364666 0.215511 -0.094000 0.623529 0.807843 0.376471
0.364498 0.217411 -0.092000 0.129412 0.301961 0.000000
0.364918 0.219799 -0.097000 0.105882 0.266667 0.000000
0.364834 0.225855 -0.096000 0.713725 0.866667 0.517647
0.364582 0.272400 -0.093000 0.039216 0.239216 0.290196
0.364245 0.273854 -0.089000 0.086275 0.403922 0.552941
0.364161 0.275729 -0.088000 0.000000 0.309804 0.482353
0.364414 0.278201 -0.091000 0.286275 0.639216 0.827451
0.364498 0.280383 -0.092000 0.000000 0.356863 0.549020
0.364498 0.282414 -0.092000 0.000000 0.341176 0.549020
0.364414 0.284287 -0.091000 0.000000 0.368627 0.580392
0.364414 0.286316 -0.091000 0.121569 0.560784 0.780392
0.364330 0.288180 -0.090000 0.000000 0.396078 0.607843
0.364161 0.289872 -0.088000 0.000000 0.364706 0.580392
0.364161 0.291892 -0.088000 0.000000 0.294118 0.513725
0.364161 0.293913 -0.088000 0.219608 0.584314 0.800000
0.364161 0.295933 -0.088000 0.109804 0.501961 0.713725
0.364161 0.297954 -0.088000 0.000000 0.360784 0.580392
0.364077 0.299794 -0.087000 0.062745 0.521569 0.737255
0.364161 0.301995 -0.088000 0.066667 0.549020 0.764706
0.364414 0.304573 -0.091000 0.235294 0.639216 0.847059
0.364834 0.307546 -0.096000 0.000000 0.090196 0.254902
0.362792 0.125783 -0.096000 0.066667 0.090196 0.113725
0.362304 0.128134 -0.090000 0.090196 0.200000 0.470588
0.362141 0.130257 -0.088000 0.019608 0.164706 0.549020
0.362141 0.132277 -0.088000 0.019608 0.172549 0.564706
0.362304 0.134211 -0.090000 0.023529 0.176471 0.568627
0.362222 0.136278 -0.089000 0.019608 0.184314 0.584314
0.362141 0.138339 -0.088000 0.019608 0.180392 0.572549
0.362141 0.140359 -0.088000 0.015686 0.176471 0.568627
0.362222 0.142347 -0.089000 0.058824 0.211765 0.588235
0.362141 0.144400 -0.088000 0.039216 0.196078 0.564706
0.362141 0.146421 -0.088000 0.027451 0.196078 0.552941
0.362222 0.148417 -0.089000 0.019608 0.180392 0.564706
0.362222 0.150440 -0.089000 0.023529 0.184314 0.568627
0.362222 0.152463 -0.089000 0.027451 0.196078 0.580392
0.362304 0.154470 -0.090000 0.011765 0.180392 0.572549
0.362304 0.156496 -0.090000 0.015686 0.196078 0.576471
0.362710 0.158470 -0.095000 0.078431 0.250980 0.592157
0.362954 0.160486 -0.098000 0.000000 0.058824 0.282353
0.362304 0.207144 -0.090000 0.647059 0.839216 0.313725
0.362466 0.209285 -0.092000 0.694118 0.878431 0.352941
0.362629 0.211438 -0.094000 0.635294 0.815686 0.301961
0.362548 0.213411 -0.093000 0.623529 0.807843 0.274510
0.362548 0.215445 -0.093000 0.611765 0.800000 0.290196
0.362385 0.217342 -0.091000 0.662745 0.843137 0.372549
0.362629 0.219585 -0.094000 0.698039 0.866667 0.443137
0.362710 0.221696 -0.095000 0.686275 0.866667 0.411765
0.362792 0.223812 -0.096000 0.658824 0.850980 0.349020
0.362710 0.225775 -0.095000 0.733333 0.886275 0.529412
0.362710 0.272685 -0.095000 0.050980 0.254902 0.290196
0.362304 0.273999 -0.090000 0.070588 0.403922 0.552941
0.362222 0.275877 -0.089000 0.000000 0.337255 0.513725
0.362304 0.278050 -0.090000 0.231373 0.619608 0.807843
0.362466 0.280383 -0.092000 0.000000 0.313725 0.517647
0.362385 0.282258 -0.091000 0.039216 0.321569 0.545098
0.362385 0.284287 -0.091000 0.000000 0.262745 0.494118
0.362385 0.286316 -0.091000 0.149020 0.607843 0.823529
0.362222 0.288016 -0.089000 0.000000 0.427451 0.643137
0.362141 0.289872 -0.088000 0.003922 0.368627 0.592157
0.362141 0.293913 -0.088000 0.172549 0.584314 0.796078
0.362222 0.296108 -0.089000 0.000000 0.337255 0.552941
0.362222 0.298132 -0.089000 0.043137 0.360784 0.580392
0.362222 0.300155 -0.089000 0.000000 0.266667 0.486275
0.362304 0.302361 -0.090000 0.141176 0.603922 0.803922
0.362466 0.304759 -0.092000 0.270588 0.654902 0.854902
0.362792 0.307546 -0.096000 0.000000 0.078431 0.235294
0.360749 0.125783 -0.096000 0.066667 0.094118 0.105882
0.360278 0.128134 -0.090000 0.086275 0.180392 0.419608
0.360121 0.130257 -0.088000 0.031373 0.164706 0.509804
0.360199 0.132231 -0.089000 0.039216 0.172549 0.517647
0.360199 0.134255 -0.089000 0.054902 0.188235 0.560784
0.360199 0.136278 -0.089000 0.054902 0.188235 0.564706
0.360121 0.138339 -0.088000 0.039216 0.184314 0.552941
0.360278 0.140289 -0.090000 0.027451 0.172549 0.533333
0.360278 0.142315 -0.090000 0.160784 0.298039 0.654902
0.360199 0.144370 -0.089000 0.000000 0.141176 0.486275
0.360042 0.146447 -0.087000 0.043137 0.184314 0.529412
0.360121 0.148441 -0.088000 0.043137 0.180392 0.537255
0.360121 0.150461 -0.088000 0.047059 0.192157 0.552941
0.360121 0.152482 -0.088000 0.031373 0.176471 0.552941
0.360199 0.154486 -0.089000 0.035294 0.192157 0.560784
0.360121 0.156523 -0.088000 0.019608 0.184314 0.552941
0.360513 0.158491 -0.093000 0.082353 0.235294 0.556863
0.360749 0.160501 -0.096000 0.000000 0.047059 0.274510
0.360356 0.207199 -0.091000 0.650980 0.843137 0.325490
0.360513 0.209343 -0.093000 0.572549 0.760784 0.250980
0.360435 0.213348 -0.092000 0.639216 0.827451 0.317647
0.360356 0.215313 -0.091000 0.650980 0.831373 0.321569
0.360278 0.217273 -0.090000 0.662745 0.843137 0.333333
0.360199 0.219228 -0.089000 0.670588 0.843137 0.333333
0.360042 0.221103 -0.087000 0.647059 0.839216 0.313725
0.360199 0.223274 -0.089000 0.650980 0.831373 0.321569
0.360356 0.225457 -0.091000 0.682353 0.819608 0.462745
0.360671 0.272685 -0.095000 0.039216 0.239216 0.286275
0.360356 0.274144 -0.091000 0.164706 0.533333 0.694118
0.360278 0.276025 -0.090000 0.000000 0.360784 0.549020
0.360278 0.278050 -0.090000 0.168627 0.576471 0.772549
0.360435 0.280383 -0.092000 0.000000 0.133333 0.349020
0.360435 0.282414 -0.092000 0.000000 0.149020 0.384314
0.360435 0.284446 -0.092000 0.000000 0.164706 0.400000
0.360435 0.286477 -0.092000 0.137255 0.627451 0.843137
0.360278 0.288180 -0.090000 0.039216 0.537255 0.749020
0.360121 0.289872 -0.088000 0.019608 0.427451 0.654902
0.360199 0.292062 -0.089000 0.000000 0.337255 0.568627
0.360199 0.294085 -0.089000 0.168627 0.568627 0.792157
0.360356 0.296459 -0.091000 0.000000 0.160784 0.392157
0.360278 0.298309 -0.090000 0.000000 0.184314 0.419608
0.360356 0.300516 -0.091000 0.000000 0.184314 0.407843
0.360356 0.302545 -0.091000 0.180392 0.635294 0.827451
0.360513 0.304945 -0.093000 0.313725 0.674510 0.866667
0.360828 0.307735 -0.097000 0.000000 0.074510 0.235294
0.358707 0.125783 -0.096000 0.050980 0.074510 0.098039
0.358328 0.128082 -0.091000 0.047059 0.137255 0.352941
0.358176 0.130208 -0.089000 0.007843 0.109804 0.427451
0.358176 0.132231 -0.089000 0.000000 0.086275 0.431373
0.358176 0.134255 -0.089000 0.000000 0.094118 0.450980
0.358176 0.136278 -0.089000 0.000000 0.117647 0.478431
0.358176 0.138301 -0.089000 0.011765 0.149020 0.505882
0.358328 0.140254 -0.091000 0.015686 0.156863 0.501961
0.358328 0.142283 -0.091000 0.000000 0.125490 0.470588
0.358328 0.144311 -0.091000 0.000000 0.101961 0.435294
0.358176 0.146394 -0.089000 0.000000 0.113725 0.447059
0.358176 0.148417 -0.089000 0.000000 0.113725 0.458824
0.358100 0.150461 -0.088000 0.000000 0.121569 0.466667
0.358100 0.152482 -0.088000 0.015686 0.160784 0.521569
0.358100 0.154502 -0.088000 0.015686 0.168627 0.521569
0.358100 0.156523 -0.088000 0.031373 0.180392 0.541176
0.358479 0.158491 -0.093000 0.094118 0.254902 0.552941
0.358783 0.160494 -0.097000 0.000000 0.070588 0.270588
0.358252 0.207144 -0.090000 0.560784 0.741176 0.262745
0.358783 0.209574 -0.097000 0.513725 0.698039 0.211765
0.358479 0.215445 -0.093000 0.619608 0.796078 0.298039
0.358328 0.217342 -0.091000 0.639216 0.819608 0.309804
0.358176 0.219228 -0.089000 0.654902 0.827451 0.317647
0.357948 0.221029 -0.086000 0.650980 0.831373 0.317647
0.358100 0.223197 -0.088000 0.662745 0.831373 0.333333
0.358328 0.225457 -0.091000 0.427451 0.556863 0.231373
0.358707 0.272827 -0.096000 0.000000 0.223529 0.286275
0.358555 0.274579 -0.094000 0.137255 0.588235 0.764706
0.358404 0.276320 -0.092000 0.054902 0.545098 0.760784
0.358479 0.278502 -0.093000 0.015686 0.498039 0.713725
0.358404 0.280383 -0.092000 0.125490 0.615686 0.835294
0.358404 0.282414 -0.092000 0.156863 0.631373 0.850980
0.358479 0.284604 -0.093000 0.117647 0.639216 0.854902
0.358479 0.286639 -0.093000 0.027451 0.588235 0.800000
0.358328 0.288344 -0.091000 0.007843 0.560784 0.772549
0.358252 0.290206 -0.090000 0.031373 0.533333 0.752941
0.358252 0.292232 -0.090000 0.007843 0.509804 0.729412
0.358328 0.294430 -0.091000 0.066667 0.560784 0.780392
0.358328 0.296459 -0.091000 0.000000 0.407843 0.631373
0.358252 0.298309 -0.090000 0.000000 0.235294 0.462745
0.358328 0.300516 -0.091000 0.164706 0.647059 0.862745
0.358328 0.302545 -0.091000 0.105882 0.584314 0.784314
0.358479 0.304945 -0.093000 0.435294 0.686275 0.850980
0.358783 0.307735 -0.097000 0.000000 0.086275 0.211765
0.356738 0.125728 -0.097000 0.050980 0.074510 0.098039
0.356518 0.127928 -0.094000 0.070588 0.121569 0.337255
0.356299 0.130111 -0.091000 0.000000 0.070588 0.360784
0.356372 0.132093 -0.092000 0.000000 0.086275 0.392157
0.356299 0.134168 -0.091000 0.105882 0.207843 0.517647
0.356299 0.136197 -0.091000 0.090196 0.196078 0.529412
0.356226 0.138263 -0.090000 0.050980 0.172549 0.521569
0.356299 0.140254 -0.091000 0.023529 0.121569 0.454902
0.356299 0.142283 -0.091000 0.011765 0.113725 0.431373
0.356299 0.144311 -0.091000 0.000000 0.094118 0.403922
0.356299 0.146340 -0.091000 0.000000 0.058824 0.364706
0.356299 0.148369 -0.091000 0.000000 0.078431 0.384314
0.356153 0.150440 -0.089000 0.105882 0.207843 0.517647
0.356080 0.152482 -0.088000 0.066667 0.192157 0.525490
0.356007 0.154518 -0.087000 0.050980 0.160784 0.525490
0.356153 0.156510 -0.089000 0.007843 0.152941 0.509804
0.356518 0.158480 -0.094000 0.078431 0.239216 0.537255
0.356518 0.203290 -0.094000 0.607843 0.792157 0.360784
0.356445 0.205275 -0.093000 0.596078 0.784314 0.329412
0.356372 0.207254 -0.092000 0.529412 0.709804 0.254902
0.356738 0.209574 -0.097000 0.482353 0.658824 0.203922
0.356592 0.217617 -0.095000 0.443137 0.615686 0.172549
0.356372 0.219442 -0.092000 0.572549 0.756863 0.262745
0.356007 0.221103 -0.087000 0.596078 0.784314 0.282353
0.356080 0.223197 -0.088000 0.658824 0.831373 0.349020
0.356299 0.225457 -0.091000 0.270588 0.396078 0.086275
0.356738 0.272969 -0.097000 0.000000 0.223529 0.286275
0.356445 0.274434 -0.093000 0.137255 0.600000 0.792157
0.356372 0.276320 -0.092000 0.066667 0.580392 0.792157
0.356372 0.278352 -0.092000 0.078431 0.580392 0.800000
0.356372 0.280383 -0.092000 0.066667 0.588235 0.803922
0.356372 0.282414 -0.092000 0.031373 0.592157 0.803922
0.356445 0.284604 -0.093000 0.031373 0.592157 0.803922
0.356518 0.286800 -0.094000 0.027451 0.580392 0.792157
0.356372 0.288508 -0.092000 0.086275 0.627451 0.843137
0.356299 0.290373 -0.091000 0.054902 0.568627 0.784314
0.356226 0.292232 -0.090000 0.035294 0.572549 0.788235
0.356226 0.294258 -0.090000 0.047059 0.588235 0.803922
0.356226 0.296284 -0.090000 0.047059 0.588235 0.803922
0.356226 0.298309 -0.090000 0.101961 0.623529 0.839216
0.356153 0.300155 -0.089000 0.050980 0.588235 0.803922
0.356153 0.302178 -0.089000 0.078431 0.584314 0.788235
0.356372 0.304759 -0.092000 0.133333 0.368627 0.501961
0.356811 0.307924 -0.098000 0.015686 0.101961 0.203922
0.354763 0.125674 -0.098000 0.039216 0.090196 0.101961
0.354482 0.127928 -0.094000 0.062745 0.113725 0.329412
0.354341 0.130062 -0.092000 0.015686 0.070588 0.341176
0.354341 0.132093 -0.092000 0.125490 0.235294 0.560784
0.354270 0.134168 -0.091000 0.000000 0.050980 0.356863
0.354341 0.136156 -0.092000 0.000000 0.039216 0.349020
0.354270 0.138225 -0.091000 0.027451 0.125490 0.450980
0.354200 0.140289 -0.090000 0.007843 0.109804 0.458824
0.354200 0.142315 -0.090000 0.003922 0.101961 0.427451
0.354200 0.144341 -0.090000 0.000000 0.082353 0.392157
0.354200 0.146367 -0.090000 0.000000 0.074510 0.380392
0.354270 0.148369 -0.091000 0.101961 0.258824 0.541176
0.354130 0.150440 -0.089000 0.000000 0.058824 0.352941
0.354059 0.152482 -0.088000 0.000000 0.050980 0.368627
0.353989 0.154518 -0.087000 0.031373 0.180392 0.541176
0.354130 0.156510 -0.089000 0.007843 0.156863 0.525490
0.354482 0.158480 -0.094000 0.082353 0.231373 0.537255
0.354482 0.205327 -0.094000 0.631373 0.819608 0.396078
0.354341 0.207254 -0.092000 0.482353 0.662745 0.215686
0.354622 0.209516 -0.096000 0.419608 0.596078 0.156863
0.354693 0.217754 -0.097000 0.572549 0.752941 0.329412
0.354552 0.219656 -0.095000 0.635294 0.815686 0.356863
0.354270 0.221399 -0.091000 0.596078 0.792157 0.305882
0.354341 0.223505 -0.092000 0.670588 0.843137 0.400000
0.354482 0.225695 -0.094000 0.074510 0.203922 0.000000
0.354693 0.272969 -0.097000 0.019608 0.239216 0.298039
0.354341 0.274289 -0.092000 0.117647 0.564706 0.741176
0.354200 0.276025 -0.090000 0.043137 0.521569 0.725490
0.354270 0.278201 -0.091000 0.035294 0.564706 0.776471
0.354270 0.280230 -0.091000 0.043137 0.584314 0.800000
0.354341 0.282414 -0.092000 0.031373 0.584314 0.796078
0.354411 0.284604 -0.093000 0.023529 0.576471 0.788235
0.354552 0.286962 -0.095000 0.117647 0.619608 0.839216
0.354482 0.288837 -0.094000 0.015686 0.509804 0.729412
0.354341 0.290540 -0.092000 0.015686 0.505882 0.725490
0.354200 0.292232 -0.090000 0.066667 0.560784 0.780392
0.354130 0.294085 -0.089000 0.039216 0.580392 0.796078
0.354130 0.296108 -0.089000 0.031373 0.584314 0.796078
0.354200 0.298309 -0.090000 0.023529 0.584314 0.796078
0.354130 0.300155 -0.089000 0.023529 0.576471 0.788235
0.354200 0.302361 -0.090000 0.090196 0.584314 0.788235
0.354341 0.304759 -0.092000 0.019608 0.243137 0.356863
0.352580 0.125783 -0.096000 0.039216 0.074510 0.094118
0.352377 0.127979 -0.093000 0.054902 0.121569 0.341176
0.352242 0.130111 -0.091000 0.043137 0.152941 0.470588
0.352242 0.132139 -0.091000 0.000000 0.015686 0.341176
0.352309 0.134125 -0.092000 0.011765 0.043137 0.305882
0.352309 0.136156 -0.092000 0.031373 0.058824 0.266667
0.352309 0.138188 -0.092000 0.000000 0.015686 0.247059
0.352174 0.140289 -0.090000 0.003922 0.156863 0.509804
0.352174 0.142315 -0.090000 0.000000 0.090196 0.431373
0.352174 0.144341 -0.090000 0.000000 0.078431 0.411765
0.352174 0.146367 -0.090000 0.000000 0.098039 0.415686
0.352174 0.148393 -0.090000 0.000000 0.035294 0.341176
0.352106 0.150440 -0.089000 0.003922 0.066667 0.305882
0.352106 0.152463 -0.089000 0.007843 0.062745 0.305882
0.352039 0.154502 -0.088000 0.062745 0.211765 0.556863
0.352242 0.156483 -0.091000 0.019608 0.176471 0.545098
0.352580 0.158459 -0.096000 0.066667 0.215686 0.521569
0.352174 0.194988 -0.090000 0.360784 0.533333 0.149020
0.352242 0.197056 -0.091000 0.650980 0.835294 0.435294
0.352512 0.205379 -0.095000 0.631373 0.807843 0.403922
0.352309 0.207254 -0.092000 0.525490 0.705882 0.258824
0.352242 0.209228 -0.091000 0.415686 0.596078 0.149020
0.352445 0.211438 -0.094000 0.352941 0.533333 0.109804
0.352648 0.215709 -0.097000 0.321569 0.513725 0.113725
0.352512 0.217617 -0.095000 0.356863 0.549020 0.156863
0.352309 0.219442 -0.092000 0.290196 0.478431 0.054902
0.352309 0.221473 -0.092000 0.635294 0.831373 0.376471
0.352377 0.223582 -0.093000 0.694118 0.862745 0.439216
0.352512 0.225775 -0.095000 0.035294 0.156863 0.000000
0.352648 0.272969 -0.097000 0.070588 0.298039 0.356863
0.352309 0.274289 -0.092000 0.047059 0.450980 0.631373
0.352106 0.275877 -0.089000 0.000000 0.431373 0.623529
0.352174 0.278050 -0.090000 0.000000 0.419608 0.623529
0.352242 0.280230 -0.091000 0.000000 0.474510 0.690196
0.352309 0.282414 -0.092000 0.000000 0.513725 0.729412
0.352377 0.284604 -0.093000 0.003922 0.533333 0.749020
0.352445 0.286800 -0.094000 0.066667 0.549020 0.768627
0.352377 0.288673 -0.093000 0.000000 0.415686 0.639216
0.352309 0.290540 -0.092000 0.000000 0.439216 0.654902
0.352309 0.292571 -0.092000 0.003922 0.470588 0.686275
0.352309 0.294603 -0.092000 0.027451 0.541176 0.752941
0.352242 0.296459 -0.091000 0.011765 0.541176 0.756863
0.352242 0.298487 -0.091000 0.007843 0.549020 0.764706
0.352106 0.300155 -0.089000 0.015686 0.568627 0.780392
0.352309 0.302728 -0.092000 0.117647 0.611765 0.811765
0.352445 0.305131 -0.094000 0.474510 0.698039 0.815686
0.350473 0.125837 -0.095000 0.043137 0.078431 0.098039
0.350278 0.128031 -0.092000 0.082353 0.164706 0.419608
0.350148 0.130160 -0.090000 0.000000 0.109804 0.443137
0.350213 0.132139 -0.091000 0.015686 0.113725 0.447059
0.350213 0.134168 -0.091000 0.000000 0.000000 0.203922
0.350213 0.136197 -0.091000 0.000000 0.000000 0.192157
0.350213 0.138225 -0.091000 0.109804 0.250980 0.592157
0.350148 0.140289 -0.090000 0.019608 0.188235 0.545098
0.350083 0.142347 -0.089000 0.015686 0.145098 0.501961
0.350083 0.144370 -0.089000 0.000000 0.113725 0.462745
0.350083 0.146394 -0.089000 0.062745 0.188235 0.529412
0.350148 0.148393 -0.090000 0.054902 0.133333 0.439216
0.350148 0.150419 -0.090000 0.000000 0.015686 0.254902
0.350148 0.152444 -0.090000 0.000000 0.007843 0.227451
0.350148 0.154470 -0.090000 0.000000 0.090196 0.396078
0.350278 0.156470 -0.092000 0.023529 0.192157 0.576471
0.350473 0.158470 -0.095000 0.039216 0.184314 0.513725
0.350343 0.193070 -0.093000 0.631373 0.792157 0.403922
0.350148 0.194988 -0.090000 0.556863 0.741176 0.270588
0.350213 0.197056 -0.091000 0.576471 0.764706 0.309804
0.350213 0.207199 -0.091000 0.564706 0.749020 0.270588
0.350213 0.209228 -0.091000 0.443137 0.623529 0.176471
0.350343 0.211377 -0.093000 0.376471 0.560784 0.121569
0.350603 0.213664 -0.097000 0.670588 0.858824 0.435294
0.350408 0.215511 -0.094000 0.156863 0.345098 0.000000
0.350083 0.221251 -0.089000 0.678431 0.858824 0.400000
0.350278 0.223505 -0.092000 0.717647 0.882353 0.470588
0.350473 0.225775 -0.095000 0.023529 0.133333 0.000000
0.350408 0.272542 -0.094000 0.062745 0.321569 0.392157
0.350083 0.273854 -0.089000 0.019608 0.380392 0.537255
0.350018 0.275729 -0.088000 0.000000 0.282353 0.470588
0.350148 0.278050 -0.090000 0.007843 0.368627 0.568627
0.350278 0.280383 -0.092000 0.203922 0.588235 0.796078
0.350343 0.282570 -0.093000 0.160784 0.572549 0.792157
0.350408 0.284763 -0.094000 0.054902 0.513725 0.729412
0.350343 0.286639 -0.093000 0.011765 0.450980 0.670588
0.350343 0.288673 -0.093000 0.000000 0.415686 0.635294
0.350278 0.290540 -0.092000 0.039216 0.415686 0.623529
0.350343 0.292741 -0.093000 0.000000 0.313725 0.525490
0.350278 0.294603 -0.092000 0.000000 0.290196 0.498039
0.350213 0.296459 -0.091000 0.129412 0.533333 0.745098
0.350278 0.298665 -0.092000 0.062745 0.552941 0.768627
0.350148 0.300335 -0.090000 0.027451 0.549020 0.764706
0.350278 0.302728 -0.092000 0.149020 0.627451 0.831373
0.350343 0.304945 -0.093000 0.000000 0.086275 0.254902
0.348371 0.125891 -0.094000 0.035294 0.078431 0.098039
0.348185 0.128082 -0.091000 0.086275 0.203922 0.498039
0.348060 0.130208 -0.089000 0.019608 0.164706 0.541176
0.348185 0.132139 -0.091000 0.031373 0.172549 0.568627
0.348185 0.134168 -0.091000 0.054902 0.207843 0.600000
0.348185 0.136197 -0.091000 0.066667 0.227451 0.619608
0.348185 0.138225 -0.091000 0.019608 0.188235 0.580392
0.348247 0.140219 -0.092000 0.023529 0.184314 0.576471
0.348185 0.142283 -0.091000 0.023529 0.168627 0.552941
0.348185 0.144311 -0.091000 0.027451 0.168627 0.545098
0.348060 0.146394 -0.089000 0.000000 0.145098 0.529412
0.348122 0.148393 -0.090000 0.054902 0.203922 0.549020
0.348122 0.150419 -0.090000 0.023529 0.078431 0.415686
0.348185 0.152426 -0.091000 0.050980 0.105882 0.419608
0.348185 0.154454 -0.091000 0.070588 0.215686 0.584314
0.348247 0.156470 -0.092000 0.011765 0.180392 0.572549
0.348433 0.158470 -0.095000 0.000000 0.164706 0.494118
0.348309 0.193070 -0.093000 0.666667 0.831373 0.427451
0.348060 0.194950 -0.089000 0.627451 0.811765 0.325490
0.348122 0.197014 -0.090000 0.623529 0.811765 0.309804
0.348558 0.199349 -0.097000 0.619608 0.800000 0.321569
0.348496 0.205432 -0.096000 0.682353 0.874510 0.356863
0.348185 0.207199 -0.091000 0.619608 0.811765 0.286275
0.348060 0.209112 -0.089000 0.603922 0.792157 0.282353
0.348122 0.211196 -0.090000 0.525490 0.713725 0.211765
0.348247 0.213348 -0.092000 0.568627 0.760784 0.258824
0.348185 0.215313 -0.091000 0.462745 0.639216 0.239216
0.347998 0.221177 -0.088000 0.658824 0.843137 0.356863
0.348247 0.223505 -0.092000 0.749020 0.901961 0.513725
0.348558 0.225934 -0.097000 0.058824 0.156863 0.000000
0.348371 0.272542 -0.094000 0.070588 0.337255 0.411765
0.348122 0.273999 -0.090000 0.000000 0.333333 0.490196
0.348060 0.275877 -0.089000 0.231373 0.619608 0.803922
0.348185 0.278201 -0.091000 0.203922 0.603922 0.792157
0.348247 0.280383 -0.092000 0.000000 0.337255 0.545098
0.348247 0.282414 -0.092000 0.000000 0.341176 0.564706
0.348247 0.284446 -0.092000 0.101961 0.552941 0.768627
0.348185 0.286316 -0.091000 0.000000 0.419608 0.639216
0.348060 0.288016 -0.089000 0.000000 0.380392 0.592157
0.348060 0.290039 -0.089000 0.000000 0.341176 0.552941
0.348122 0.292232 -0.090000 0.000000 0.286275 0.498039
0.348309 0.294775 -0.093000 0.219608 0.615686 0.823529
0.348247 0.296634 -0.092000 0.000000 0.341176 0.549020
0.348247 0.298665 -0.092000 0.000000 0.364706 0.572549
0.348122 0.300335 -0.090000 0.074510 0.584314 0.780392
0.348309 0.302911 -0.093000 0.160784 0.639216 0.843137
0.348371 0.305131 -0.094000 0.000000 0.086275 0.270588
0.346394 0.125837 -0.095000 0.035294 0.078431 0.098039
0.346156 0.128082 -0.091000 0.066667 0.200000 0.501961
0.346037 0.130208 -0.089000 0.031373 0.160784 0.549020
0.346037 0.132231 -0.089000 0.039216 0.172549 0.549020
0.346037 0.134255 -0.089000 0.027451 0.180392 0.564706
0.346156 0.136197 -0.091000 0.031373 0.184314 0.568627
0.346215 0.138188 -0.092000 0.031373 0.184314 0.568627
0.346215 0.140219 -0.092000 0.015686 0.168627 0.552941
0.346096 0.142315 -0.090000 0.035294 0.180392 0.564706
0.346037 0.144370 -0.089000 0.027451 0.172549 0.556863
0.346096 0.146367 -0.090000 0.023529 0.176471 0.568627
0.346096 0.148393 -0.090000 0.027451 0.188235 0.580392
0.346156 0.150397 -0.091000 0.023529 0.192157 0.584314
0.346096 0.152444 -0.090000 0.027451 0.203922 0.600000
0.346037 0.154486 -0.089000 0.019608 0.188235 0.580392
0.346096 0.156496 -0.090000 0.015686 0.184314 0.576471
0.346394 0.158470 -0.095000 0.000000 0.129412 0.447059
0.346275 0.193070 -0.093000 0.658824 0.827451 0.403922
0.346156 0.195027 -0.091000 0.619608 0.803922 0.309804
0.346156 0.197056 -0.091000 0.635294 0.823529 0.313725
0.346513 0.199349 -0.097000 0.627451 0.819608 0.294118
0.346632 0.201488 -0.099000 0.647059 0.839216 0.305882
0.346632 0.203538 -0.099000 0.654902 0.843137 0.294118
0.346275 0.205275 -0.093000 0.658824 0.847059 0.305882
0.346096 0.207144 -0.090000 0.647059 0.831373 0.305882
0.346037 0.209112 -0.089000 0.631373 0.815686 0.290196
0.346156 0.211256 -0.091000 0.635294 0.827451 0.301961
0.346215 0.213348 -0.092000 0.643137 0.835294 0.309804
0.346156 0.215313 -0.091000 0.662745 0.847059 0.360784
0.346037 0.217205 -0.089000 0.705882 0.882353 0.423529
0.345918 0.219085 -0.087000 0.666667 0.850980 0.356863
0.345977 0.221177 -0.088000 0.658824 0.847059 0.345098
0.346275 0.223582 -0.093000 0.756863 0.901961 0.537255
0.346215 0.272258 -0.092000 0.090196 0.360784 0.435294
0.346037 0.273854 -0.089000 0.000000 0.341176 0.517647
0.346096 0.276025 -0.090000 0.239216 0.627451 0.815686
0.346215 0.278352 -0.092000 0.000000 0.274510 0.486275
0.346215 0.280383 -0.092000 0.058824 0.356863 0.580392
