0.596301 0.499137 -0.040000 0.149020 0.184314 0.156863
0.594174 0.498608 -0.035000 0.156863 0.192157 0.164706
0.594599 0.500970 -0.036000 0.149020 0.192157 0.164706
0.594599 0.502849 -0.036000 0.152941 0.196078 0.168627
0.608780 0.485756 -0.074000 0.117647 0.149020 0.121569
0.605822 0.484639 -0.067000 0.137255 0.168627 0.141176
0.605399 0.486157 -0.066000 0.176471 0.207843 0.180392
0.604131 0.486773 -0.063000 0.188235 0.223529 0.196078
0.602441 0.486921 -0.059000 0.152941 0.188235 0.160784
0.599482 0.485687 -0.052000 0.152941 0.196078 0.168627
0.597369 0.485327 -0.047000 0.149020 0.184314 0.156863
0.596524 0.486318 -0.045000 0.149020 0.184314 0.156863
0.596524 0.488221 -0.045000 0.137255 0.180392 0.152941
0.596102 0.489659 -0.044000 0.152941 0.188235 0.160784
0.596102 0.491559 -0.044000 0.145098 0.180392 0.152941
0.596102 0.493460 -0.044000 0.160784 0.196078 0.168627
0.595256 0.494414 -0.042000 0.149020 0.184314 0.156863
0.595679 0.496785 -0.043000 0.160784 0.196078 0.168627
0.594834 0.497726 -0.041000 0.145098 0.188235 0.160784
0.594834 0.499618 -0.041000 0.149020 0.192157 0.164706
0.593566 0.500059 -0.038000 0.149020 0.192157 0.164706
0.593989 0.502429 -0.039000 0.152941 0.196078 0.168627
0.593566 0.503827 -0.038000 0.149020 0.203922 0.172549
0.607637 0.484649 -0.076000 0.121569 0.152941 0.125490
0.604278 0.483116 -0.068000 0.101961 0.133333 0.105882
0.603019 0.483754 -0.065000 0.176471 0.207843 0.180392
0.602179 0.484821 -0.063000 0.192157 0.223529 0.196078
0.601339 0.485876 -0.061000 0.152941 0.188235 0.160784
0.600080 0.486470 -0.058000 0.164706 0.200000 0.172549
0.597980 0.486141 -0.053000 0.156863 0.192157 0.164706
0.596721 0.486696 -0.050000 0.164706 0.196078 0.168627
0.595881 0.487695 -0.048000 0.152941 0.184314 0.156863
0.595461 0.489144 -0.047000 0.164706 0.196078 0.168627
0.595041 0.490588 -0.046000 0.156863 0.188235 0.160784
0.595041 0.492494 -0.046000 0.149020 0.184314 0.156863
0.594201 0.493460 -0.044000 0.156863 0.192157 0.164706
0.593781 0.494887 -0.043000 0.149020 0.184314 0.156863
0.593362 0.496309 -0.042000 0.149020 0.184314 0.156863
0.593781 0.498682 -0.043000 0.149020 0.184314 0.156863
0.592102 0.498656 -0.039000 0.145098 0.188235 0.160784
0.591262 0.499575 -0.037000 0.152941 0.196078 0.168627
0.590422 0.500484 -0.035000 0.152941 0.196078 0.168627
0.591262 0.503338 -0.037000 0.156863 0.200000 0.172549
0.604398 0.483337 -0.073000 0.101961 0.133333 0.105882
0.601895 0.482676 -0.067000 0.172549 0.203922 0.176471
0.600644 0.483311 -0.064000 0.184314 0.219608 0.192157
0.599810 0.484375 -0.062000 0.176471 0.211765 0.184314
0.598975 0.485428 -0.060000 0.164706 0.200000 0.172549
0.597724 0.486019 -0.057000 0.156863 0.192157 0.164706
0.596055 0.486141 -0.053000 0.149020 0.184314 0.156863
0.595638 0.487609 -0.052000 0.152941 0.188235 0.160784
0.595221 0.489072 -0.051000 0.149020 0.184314 0.156863
0.594804 0.490530 -0.050000 0.156863 0.192157 0.164706
0.593552 0.491053 -0.047000 0.145098 0.176471 0.149020
0.594387 0.493896 -0.049000 0.152941 0.188235 0.160784
0.593135 0.494400 -0.046000 0.149020 0.184314 0.156863
0.592718 0.495833 -0.045000 0.152941 0.188235 0.160784
0.591884 0.496785 -0.043000 0.156863 0.192157 0.164706
0.593135 0.500117 -0.046000 0.152941 0.188235 0.160784
0.592301 0.501061 -0.044000 0.156863 0.192157 0.164706
0.591467 0.501994 -0.042000 0.152941 0.188235 0.160784
0.590632 0.502916 -0.040000 0.156863 0.192157 0.164706
0.590632 0.504805 -0.040000 0.145098 0.188235 0.160784
0.604491 0.483530 -0.078000 0.121569 0.152941 0.125490
0.602419 0.483337 -0.073000 0.149020 0.180392 0.152941
0.599932 0.482676 -0.067000 0.184314 0.215686 0.188235
0.599103 0.483754 -0.065000 0.188235 0.223529 0.196078
0.597860 0.484375 -0.062000 0.164706 0.200000 0.172549
0.597446 0.485876 -0.061000 0.164706 0.200000 0.172549
0.597446 0.487823 -0.061000 0.160784 0.196078 0.168627
0.594959 0.487048 -0.055000 0.156863 0.192157 0.164706
0.594545 0.488522 -0.054000 0.160784 0.196078 0.168627
0.593302 0.489072 -0.051000 0.156863 0.192157 0.164706
0.593302 0.490992 -0.051000 0.149020 0.184314 0.156863
0.591644 0.491053 -0.047000 0.152941 0.188235 0.160784
0.592058 0.493429 -0.048000 0.156863 0.192157 0.164706
0.591644 0.494870 -0.047000 0.149020 0.184314 0.156863
0.591644 0.496778 -0.047000 0.156863 0.192157 0.164706
0.591229 0.498211 -0.046000 0.152941 0.188235 0.160784
0.592058 0.501074 -0.048000 0.160784 0.196078 0.168627
0.592058 0.502985 -0.048000 0.156863 0.192157 0.164706
0.590401 0.502961 -0.044000 0.156863 0.192157 0.164706
0.589572 0.503889 -0.042000 0.164706 0.200000 0.172549
0.588743 0.504805 -0.040000 0.149020 0.184314 0.156863
0.601263 0.482226 -0.075000 0.156863 0.188235 0.160784
0.600028 0.482899 -0.072000 0.172549 0.203922 0.176471
0.598381 0.483116 -0.068000 0.207843 0.239216 0.211765
0.597146 0.483754 -0.065000 0.192157 0.227451 0.200000
0.596322 0.484821 -0.063000 0.176471 0.211765 0.184314
0.595911 0.486325 -0.062000 0.168627 0.203922 0.176471
0.595911 0.488274 -0.062000 0.160784 0.196078 0.168627
0.594676 0.488863 -0.059000 0.164706 0.200000 0.172549
0.593852 0.489891 -0.057000 0.145098 0.180392 0.152941
0.592617 0.490450 -0.054000 0.149020 0.192157 0.164706
0.592617 0.492377 -0.054000 0.152941 0.188235 0.160784
0.590970 0.492447 -0.050000 0.152941 0.188235 0.160784
0.590147 0.493429 -0.048000 0.156863 0.192157 0.164706
0.590147 0.495340 -0.048000 0.156863 0.192157 0.164706
0.589324 0.496306 -0.046000 0.149020 0.188235 0.152941
0.590559 0.499638 -0.049000 0.145098 0.192157 0.156863
0.590559 0.501552 -0.049000 0.156863 0.192157 0.164706
0.590970 0.503947 -0.050000 0.149020 0.192157 0.164706
0.588912 0.503445 -0.045000 0.149020 0.192157 0.164706
0.588089 0.504375 -0.043000 0.152941 0.188235 0.160784
0.586854 0.504805 -0.040000 0.168627 0.203922 0.176471
0.600096 0.481105 -0.077000 0.121569 0.152941 0.125490
0.598051 0.480923 -0.072000 0.188235 0.223529 0.196078
0.597642 0.482462 -0.071000 0.196078 0.231373 0.203922
0.596415 0.483116 -0.068000 0.203922 0.239216 0.211765
0.596006 0.484639 -0.067000 0.180392 0.215686 0.188235
0.595597 0.486157 -0.066000 0.172549 0.207843 0.180392
0.595597 0.488117 -0.066000 0.168627 0.203922 0.176471
0.595188 0.489627 -0.065000 0.156863 0.192157 0.164706
0.593552 0.489770 -0.061000 0.156863 0.192157 0.164706
0.592734 0.490804 -0.059000 0.152941 0.188235 0.160784
0.591099 0.490909 -0.055000 0.152941 0.188235 0.160784
0.590690 0.492377 -0.054000 0.156863 0.192157 0.164706
0.589463 0.492911 -0.051000 0.160784 0.196078 0.168627
0.588236 0.493429 -0.048000 0.156863 0.192157 0.164706
0.588236 0.495340 -0.048000 0.152941 0.188235 0.160784
0.587418 0.496306 -0.046000 0.149020 0.196078 0.160784
0.588645 0.499638 -0.049000 0.145098 0.192157 0.156863
0.588236 0.501074 -0.048000 0.149020 0.196078 0.160784
0.587827 0.502504 -0.047000 0.152941 0.196078 0.168627
0.586600 0.502961 -0.044000 0.152941 0.200000 0.164706
0.585373 0.503402 -0.041000 0.149020 0.192157 0.164706
0.585373 0.505294 -0.041000 0.160784 0.203922 0.176471
0.598918 0.471989 -0.079000 0.329412 0.352941 0.321569
0.598918 0.473985 -0.079000 0.290196 0.313725 0.282353
0.598511 0.479544 -0.078000 0.160784 0.192157 0.164706
0.596480 0.479378 -0.073000 0.125490 0.156863 0.129412
0.595668 0.480488 -0.071000 0.176471 0.211765 0.184314
0.594855 0.481588 -0.069000 0.200000 0.235294 0.207843
0.594449 0.483116 -0.068000 0.192157 0.227451 0.200000
0.594449 0.485082 -0.068000 0.192157 0.227451 0.200000
0.594449 0.487048 -0.068000 0.164706 0.200000 0.172549
0.594043 0.488566 -0.067000 0.168627 0.203922 0.176471
0.593230 0.489627 -0.065000 0.160784 0.196078 0.168627
0.591199 0.489316 -0.060000 0.156863 0.192157 0.164706
0.590387 0.490347 -0.058000 0.156863 0.192157 0.164706
0.589168 0.490909 -0.055000 0.152941 0.188235 0.160784
0.589981 0.493763 -0.057000 0.156863 0.192157 0.164706
0.588762 0.494305 -0.054000 0.164706 0.200000 0.172549
0.588356 0.495765 -0.053000 0.164706 0.200000 0.172549
0.586731 0.495810 -0.049000 0.160784 0.196078 0.168627
0.586731 0.497724 -0.049000 0.156863 0.200000 0.172549
0.587137 0.500113 -0.050000 0.145098 0.192157 0.156863
0.587543 0.502508 -0.051000 0.156863 0.200000 0.172549
0.586731 0.503466 -0.049000 0.156863 0.200000 0.172549
0.585512 0.503929 -0.046000 0.156863 0.200000 0.172549
0.583887 0.503889 -0.042000 0.152941 0.196078 0.168627
0.583887 0.505784 -0.042000 0.164706 0.207843 0.180392
0.596922 0.471989 -0.079000 0.360784 0.384314 0.352941
0.595711 0.478685 -0.076000 0.176471 0.207843 0.180392
0.594904 0.479810 -0.074000 0.172549 0.203922 0.176471
0.592887 0.479619 -0.069000 0.121569 0.156863 0.129412
0.592887 0.481588 -0.069000 0.160784 0.196078 0.168627
0.592887 0.483556 -0.069000 0.192157 0.227451 0.200000
0.593290 0.485968 -0.070000 0.184314 0.219608 0.192157
0.593694 0.488384 -0.071000 0.180392 0.215686 0.188235
0.593290 0.489910 -0.070000 0.156863 0.192157 0.164706
0.591676 0.490078 -0.066000 0.152941 0.188235 0.160784
0.590062 0.490224 -0.062000 0.164706 0.200000 0.172549
0.588448 0.490347 -0.058000 0.160784 0.196078 0.168627
0.587238 0.490909 -0.055000 0.160784 0.196078 0.168627
0.588448 0.494225 -0.058000 0.164706 0.200000 0.172549
0.588045 0.495698 -0.057000 0.156863 0.192157 0.164706
0.587238 0.496700 -0.055000 0.164706 0.200000 0.172549
0.585624 0.496750 -0.051000 0.160784 0.203922 0.176471
0.585624 0.498669 -0.051000 0.156863 0.200000 0.172549
0.585624 0.500589 -0.051000 0.168627 0.211765 0.184314
0.586027 0.502986 -0.052000 0.156863 0.200000 0.172549
0.585220 0.503947 -0.050000 0.176471 0.219608 0.192157
0.584817 0.505380 -0.049000 0.172549 0.215686 0.188235
0.584817 0.507294 -0.049000 0.149020 0.192157 0.164706
0.584413 0.508718 -0.048000 0.152941 0.196078 0.168627
0.594926 0.479973 -0.079000 0.176471 0.207843 0.180392
0.593323 0.480241 -0.075000 0.172549 0.203922 0.176471
0.591319 0.480054 -0.070000 0.160784 0.196078 0.168627
0.590918 0.481588 -0.069000 0.133333 0.168627 0.141176
0.590918 0.483556 -0.069000 0.156863 0.200000 0.172549
0.591319 0.485968 -0.070000 0.188235 0.223529 0.196078
0.590517 0.487048 -0.068000 0.156863 0.200000 0.172549
0.589716 0.488117 -0.066000 0.164706 0.200000 0.172549
0.588914 0.489176 -0.064000 0.156863 0.192157 0.164706
0.587712 0.489770 -0.061000 0.152941 0.188235 0.160784
0.586911 0.490804 -0.059000 0.160784 0.196078 0.168627
0.586510 0.492286 -0.058000 0.168627 0.203922 0.176471
0.588113 0.496072 -0.062000 0.172549 0.207843 0.180392
0.587712 0.497557 -0.061000 0.164706 0.200000 0.172549
0.586911 0.498569 -0.059000 0.172549 0.207843 0.180392
0.584506 0.497690 -0.053000 0.152941 0.196078 0.168627
0.584506 0.499615 -0.053000 0.164706 0.207843 0.180392
0.584907 0.502015 -0.054000 0.172549 0.207843 0.180392
0.585708 0.504899 -0.056000 0.188235 0.223529 0.196078
0.584907 0.505870 -0.054000 0.184314 0.219608 0.192157
0.584506 0.507314 -0.053000 0.172549 0.207843 0.180392
0.584105 0.508753 -0.052000 0.184314 0.219608 0.192157
0.583704 0.510186 -0.051000 0.168627 0.211765 0.184314
0.593328 0.476405 -0.080000 0.372549 0.396078 0.368627
0.592930 0.479973 -0.079000 0.192157 0.223529 0.196078
0.592134 0.481105 -0.077000 0.176471 0.207843 0.180392
0.589746 0.480488 -0.071000 0.168627 0.200000 0.172549
0.589348 0.482025 -0.070000 0.160784 0.196078 0.168627
0.589348 0.483996 -0.070000 0.141176 0.176471 0.149020
0.589746 0.486410 -0.071000 0.149020 0.184314 0.156863
0.588950 0.487493 -0.069000 0.168627 0.203922 0.176471
0.588154 0.488566 -0.067000 0.160784 0.196078 0.168627
0.587756 0.490078 -0.066000 0.156863 0.192157 0.164706
0.586959 0.491131 -0.064000 0.172549 0.207843 0.180392
0.586561 0.492629 -0.063000 0.168627 0.203922 0.176471
0.586163 0.494122 -0.062000 0.164706 0.200000 0.172549
0.585765 0.495610 -0.061000 0.156863 0.200000 0.172549
0.585765 0.497557 -0.061000 0.160784 0.203922 0.176471
0.584969 0.498569 -0.059000 0.160784 0.203922 0.176471
0.584571 0.500040 -0.058000 0.168627 0.211765 0.184314
0.584173 0.501506 -0.057000 0.184314 0.219608 0.192157
0.584173 0.503442 -0.057000 0.192157 0.227451 0.200000
0.583775 0.504899 -0.056000 0.188235 0.223529 0.196078
0.582979 0.505870 -0.054000 0.200000 0.235294 0.207843
0.582581 0.507314 -0.053000 0.200000 0.235294 0.207843
0.583377 0.510212 -0.055000 0.192157 0.227451 0.200000
0.583775 0.512632 -0.056000 0.184314 0.219608 0.192157
0.591329 0.478403 -0.080000 0.360784 0.384314 0.356863
0.591329 0.480402 -0.080000 0.274510 0.298039 0.270588
0.590934 0.481969 -0.079000 0.176471 0.207843 0.180392
0.590143 0.483095 -0.077000 0.172549 0.203922 0.176471
0.588562 0.483337 -0.073000 0.164706 0.196078 0.168627
0.587772 0.484436 -0.071000 0.156863 0.192157 0.164706
0.587376 0.485968 -0.070000 0.145098 0.180392 0.152941
0.587376 0.487939 -0.070000 0.129412 0.164706 0.137255
0.586586 0.489014 -0.068000 0.160784 0.196078 0.168627
0.586190 0.490529 -0.067000 0.160784 0.196078 0.168627
0.585400 0.491584 -0.065000 0.164706 0.200000 0.172549
0.585005 0.493086 -0.064000 0.164706 0.200000 0.172549
0.584609 0.494582 -0.063000 0.160784 0.203922 0.176471
0.584214 0.496072 -0.062000 0.168627 0.211765 0.184314
0.585005 0.498950 -0.064000 0.160784 0.203922 0.176471
0.584214 0.499971 -0.062000 0.180392 0.215686 0.188235
0.584214 0.501920 -0.062000 0.192157 0.227451 0.200000
0.583819 0.503397 -0.061000 0.196078 0.231373 0.203922
0.583423 0.504868 -0.060000 0.192157 0.227451 0.200000
0.583028 0.506334 -0.059000 0.207843 0.243137 0.215686
0.581842 0.506832 -0.056000 0.203922 0.239216 0.211765
0.581447 0.508282 -0.055000 0.211765 0.247059 0.219608
0.581842 0.510698 -0.056000 0.184314 0.219608 0.192157
0.582633 0.513610 -0.058000 0.184314 0.227451 0.200000
0.587761 0.484649 -0.076000 0.172549 0.203922 0.176471
0.586190 0.484876 -0.072000 0.168627 0.200000 0.172549
0.586583 0.487296 -0.073000 0.156863 0.188235 0.160784
0.586975 0.489721 -0.074000 0.137255 0.172549 0.145098
0.586583 0.491255 -0.073000 0.129412 0.164706 0.137255
0.586190 0.492783 -0.072000 0.152941 0.188235 0.160784
0.585405 0.493853 -0.070000 0.172549 0.207843 0.180392
0.585013 0.495368 -0.069000 0.184314 0.219608 0.192157
0.584227 0.496418 -0.067000 0.172549 0.215686 0.188235
0.583442 0.497457 -0.065000 0.184314 0.227451 0.200000
0.583835 0.499880 -0.066000 0.196078 0.239216 0.211765
0.583050 0.500905 -0.064000 0.192157 0.227451 0.200000
0.583050 0.502860 -0.064000 0.203922 0.239216 0.211765
0.582264 0.503870 -0.062000 0.219608 0.254902 0.227451
0.581872 0.505344 -0.061000 0.215686 0.247059 0.219608
0.581087 0.506334 -0.059000 0.215686 0.250980 0.223529
0.580302 0.507313 -0.057000 0.223529 0.258824 0.231373
0.579909 0.508765 -0.056000 0.215686 0.250980 0.223529
0.580302 0.511185 -0.057000 0.215686 0.250980 0.223529
0.581087 0.514099 -0.059000 0.200000 0.243137 0.215686
0.586553 0.485523 -0.078000 0.164706 0.196078 0.168627
0.585773 0.486636 -0.076000 0.164706 0.200000 0.172549
0.584993 0.487738 -0.074000 0.152941 0.184314 0.156863
0.584993 0.489721 -0.074000 0.145098 0.176471 0.149020
0.583824 0.490358 -0.071000 0.141176 0.172549 0.145098
0.583434 0.491881 -0.070000 0.137255 0.168627 0.141176
0.582654 0.492945 -0.068000 0.164706 0.196078 0.168627
0.582264 0.494455 -0.067000 0.192157 0.223529 0.196078
0.582264 0.496418 -0.067000 0.192157 0.227451 0.200000
0.583044 0.499305 -0.069000 0.207843 0.243137 0.215686
0.583044 0.501273 -0.069000 0.203922 0.247059 0.219608
0.582654 0.502775 -0.068000 0.203922 0.247059 0.219608
0.581874 0.503800 -0.066000 0.223529 0.258824 0.231373
0.581095 0.504815 -0.064000 0.219608 0.254902 0.227451
0.580705 0.506295 -0.063000 0.219608 0.254902 0.227451
0.579925 0.507290 -0.061000 0.223529 0.258824 0.231373
0.579146 0.508275 -0.059000 0.231373 0.266667 0.239216
0.578756 0.509733 -0.058000 0.235294 0.270588 0.243137
0.578366 0.511185 -0.057000 0.219608 0.254902 0.227451
0.579146 0.514099 -0.059000 0.231373 0.266667 0.239216
0.584946 0.487956 -0.079000 0.152941 0.188235 0.160784
0.584172 0.489067 -0.077000 0.164706 0.200000 0.172549
0.583398 0.490166 -0.075000 0.152941 0.188235 0.160784
0.582237 0.490806 -0.072000 0.156863 0.184314 0.168627
0.582237 0.492783 -0.072000 0.160784 0.188235 0.172549
0.581462 0.493853 -0.070000 0.168627 0.200000 0.172549
0.580688 0.494911 -0.068000 0.156863 0.188235 0.160784
0.581075 0.497336 -0.069000 0.207843 0.243137 0.215686
0.580688 0.498843 -0.068000 0.211765 0.247059 0.219608
0.581075 0.501273 -0.069000 0.219608 0.262745 0.235294
0.580688 0.502775 -0.068000 0.223529 0.266667 0.239216
0.580301 0.504270 -0.067000 0.227451 0.270588 0.243137
0.579527 0.505288 -0.065000 0.239216 0.282353 0.254902
0.579527 0.507246 -0.065000 0.235294 0.278431 0.250980
0.578753 0.508247 -0.063000 0.239216 0.282353 0.254902
0.577978 0.509237 -0.061000 0.239216 0.282353 0.254902
0.577978 0.511184 -0.061000 0.250980 0.286275 0.266667
0.577204 0.512158 -0.059000 0.247059 0.282353 0.262745
0.578366 0.515566 -0.062000 0.215686 0.258824 0.231373
0.582566 0.489509 -0.078000 0.152941 0.188235 0.160784
0.581797 0.490612 -0.076000 0.168627 0.203922 0.176471
0.581029 0.491703 -0.074000 0.172549 0.207843 0.188235
0.580644 0.493234 -0.073000 0.156863 0.192157 0.172549
0.579876 0.494306 -0.071000 0.176471 0.207843 0.180392
0.579107 0.495368 -0.069000 0.172549 0.203922 0.176471
0.578338 0.496418 -0.067000 0.160784 0.196078 0.168627
0.578722 0.498843 -0.068000 0.203922 0.239216 0.211765
0.579491 0.501738 -0.070000 0.231373 0.266667 0.239216
0.579107 0.503242 -0.069000 0.235294 0.278431 0.250980
0.579107 0.505210 -0.069000 0.235294 0.278431 0.250980
0.578338 0.506233 -0.067000 0.247059 0.290196 0.262745
0.578722 0.508672 -0.068000 0.243137 0.286275 0.258824
0.577954 0.509681 -0.066000 0.243137 0.286275 0.258824
0.577185 0.510680 -0.064000 0.254902 0.298039 0.270588
0.576801 0.512151 -0.063000 0.247059 0.290196 0.270588
0.576416 0.513617 -0.062000 0.262745 0.305882 0.286275
0.577185 0.516545 -0.064000 0.235294 0.278431 0.258824
0.581336 0.490395 -0.080000 0.145098 0.188235 0.160784
0.580191 0.491057 -0.077000 0.184314 0.227451 0.200000
0.579810 0.492599 -0.076000 0.168627 0.211765 0.184314
0.579046 0.493685 -0.074000 0.176471 0.211765 0.184314
0.579046 0.495667 -0.074000 0.176471 0.211765 0.184314
0.578283 0.496737 -0.072000 0.188235 0.219608 0.192157
0.577902 0.498254 -0.071000 0.192157 0.223529 0.196078
0.576757 0.498843 -0.068000 0.164706 0.200000 0.172549
0.577520 0.501738 -0.070000 0.211765 0.247059 0.219608
0.577138 0.503242 -0.069000 0.239216 0.282353 0.254902
0.577138 0.505210 -0.069000 0.247059 0.290196 0.262745
0.576757 0.506706 -0.068000 0.247059 0.290196 0.262745
0.577520 0.509623 -0.070000 0.239216 0.282353 0.254902
0.577138 0.511116 -0.069000 0.247059 0.290196 0.262745
0.576757 0.512604 -0.068000 0.258824 0.301961 0.282353
0.575993 0.513602 -0.066000 0.243137 0.294118 0.274510
0.575993 0.515563 -0.066000 0.250980 0.301961 0.286275
0.575993 0.517523 -0.066000 0.250980 0.301961 0.286275
0.578580 0.491502 -0.078000 0.156863 0.200000 0.172549
0.577822 0.492599 -0.076000 0.200000 0.243137 0.215686
0.577064 0.493685 -0.074000 0.160784 0.203922 0.176471
0.576685 0.495214 -0.073000 0.192157 0.227451 0.200000
0.577064 0.497649 -0.074000 0.192157 0.227451 0.200000
0.577064 0.499632 -0.074000 0.196078 0.231373 0.203922
0.576685 0.501152 -0.073000 0.200000 0.235294 0.215686
0.575928 0.502202 -0.071000 0.184314 0.219608 0.200000
0.575170 0.503242 -0.069000 0.192157 0.227451 0.200000
0.575170 0.505210 -0.069000 0.239216 0.282353 0.254902
0.575549 0.507652 -0.070000 0.250980 0.294118 0.266667
0.576306 0.510574 -0.072000 0.247059 0.290196 0.270588
0.575170 0.511116 -0.069000 0.250980 0.294118 0.274510
0.574412 0.512123 -0.067000 0.250980 0.294118 0.274510
0.573654 0.513119 -0.065000 0.239216 0.290196 0.270588
0.574033 0.515563 -0.066000 0.247059 0.298039 0.282353
0.574412 0.518012 -0.067000 0.239216 0.290196 0.274510
0.577715 0.486835 -0.081000 0.356863 0.388235 0.360784
0.577339 0.488396 -0.080000 0.192157 0.215686 0.184314
0.577339 0.492393 -0.080000 0.192157 0.223529 0.192157
0.576587 0.493496 -0.078000 0.168627 0.207843 0.172549
0.575834 0.494587 -0.076000 0.180392 0.215686 0.188235
0.576211 0.497028 -0.077000 0.188235 0.223529 0.196078
0.575834 0.498562 -0.076000 0.200000 0.235294 0.215686
0.575834 0.500550 -0.076000 0.196078 0.231373 0.211765
0.574706 0.501152 -0.073000 0.196078 0.231373 0.211765
0.574330 0.502667 -0.072000 0.200000 0.235294 0.215686
0.573577 0.503709 -0.070000 0.200000 0.235294 0.207843
0.573201 0.505210 -0.069000 0.168627 0.211765 0.192157
0.573577 0.507652 -0.070000 0.227451 0.270588 0.250980
0.573953 0.510099 -0.071000 0.262745 0.305882 0.286275
0.573201 0.511116 -0.069000 0.254902 0.298039 0.278431
0.572825 0.512604 -0.068000 0.262745 0.301961 0.290196
0.572825 0.514570 -0.068000 0.254902 0.294118 0.282353
0.573201 0.517022 -0.069000 0.258824 0.298039 0.286275
0.574706 0.520947 -0.073000 0.250980 0.290196 0.278431
0.575714 0.488836 -0.081000 0.396078 0.419608 0.392157
0.575714 0.498843 -0.081000 0.184314 0.219608 0.192157
0.575341 0.500388 -0.080000 0.203922 0.239216 0.211765
0.574594 0.501468 -0.078000 0.203922 0.239216 0.219608
0.573847 0.502538 -0.076000 0.207843 0.243137 0.223529
0.573100 0.503596 -0.074000 0.203922 0.239216 0.219608
0.571979 0.504176 -0.071000 0.215686 0.250980 0.231373
0.571979 0.506150 -0.071000 0.207843 0.250980 0.231373
0.571979 0.508125 -0.071000 0.180392 0.223529 0.203922
0.571606 0.509623 -0.070000 0.250980 0.294118 0.274510
0.571606 0.511594 -0.070000 0.274510 0.317647 0.298039
0.571233 0.513085 -0.069000 0.266667 0.309804 0.290196
0.571606 0.515537 -0.070000 0.262745 0.301961 0.290196
0.572726 0.518967 -0.073000 0.250980 0.290196 0.278431
0.572601 0.503461 -0.078000 0.219608 0.247059 0.235294
0.572230 0.504990 -0.077000 0.211765 0.239216 0.227451
0.571488 0.506046 -0.075000 0.223529 0.258824 0.239216
0.571118 0.507561 -0.074000 0.227451 0.262745 0.243137
0.570005 0.508125 -0.071000 0.215686 0.258824 0.239216
0.570005 0.510099 -0.071000 0.192157 0.235294 0.215686
0.570005 0.512073 -0.071000 0.215686 0.258824 0.239216
0.570005 0.514047 -0.071000 0.262745 0.305882 0.286275
0.570747 0.516988 -0.073000 0.266667 0.305882 0.294118
0.571711 0.506848 -0.081000 0.235294 0.250980 0.250980
0.570607 0.507448 -0.078000 0.243137 0.270588 0.258824
0.570239 0.508971 -0.077000 0.239216 0.266667 0.254902
0.569503 0.510016 -0.075000 0.227451 0.258824 0.247059
0.568767 0.511050 -0.073000 0.227451 0.270588 0.250980
0.568399 0.512551 -0.072000 0.180392 0.223529 0.203922
0.568399 0.514528 -0.072000 0.168627 0.219608 0.200000
0.569503 0.517955 -0.075000 0.262745 0.301961 0.290196
0.569710 0.508849 -0.081000 0.274510 0.282353 0.290196
0.568980 0.509911 -0.079000 0.247059 0.274510 0.270588
0.567884 0.510488 -0.076000 0.243137 0.274510 0.262745
0.567153 0.511525 -0.074000 0.239216 0.270588 0.258824
0.566788 0.513029 -0.073000 0.243137 0.282353 0.270588
0.567153 0.515489 -0.074000 0.219608 0.258824 0.247059
0.568614 0.519406 -0.078000 0.215686 0.247059 0.243137
0.567709 0.512852 -0.081000 0.274510 0.278431 0.294118
0.566621 0.513427 -0.078000 0.258824 0.286275 0.282353
0.566984 0.515898 -0.079000 0.247059 0.278431 0.274510
0.567346 0.518375 -0.080000 0.235294 0.274510 0.270588
0.564063 0.507313 -0.082000 0.768627 0.772549 0.796078
0.564063 0.509317 -0.082000 0.737255 0.741176 0.764706
0.321545 0.174627 -0.081000 0.039216 0.286275 0.439216
0.321492 0.176601 -0.079000 0.133333 0.521569 0.705882
0.321438 0.178563 -0.077000 0.282353 0.533333 0.698039
0.321465 0.180573 -0.078000 0.176471 0.580392 0.788235
0.321465 0.182566 -0.078000 0.117647 0.576471 0.784314
0.319520 0.166622 -0.080000 0.015686 0.121569 0.180392
0.319448 0.168611 -0.077000 0.290196 0.490196 0.627451
0.319400 0.170589 -0.075000 0.329412 0.580392 0.737255
0.319424 0.172583 -0.076000 0.129412 0.537255 0.733333
0.319424 0.174571 -0.076000 0.094118 0.494118 0.682353
0.319400 0.176544 -0.075000 0.094118 0.494118 0.682353
0.319376 0.178512 -0.074000 0.000000 0.372549 0.580392
0.319400 0.180514 -0.075000 0.023529 0.478431 0.709804
0.319400 0.182499 -0.075000 0.027451 0.521569 0.741176
0.319496 0.184584 -0.079000 0.054902 0.549020 0.776471
0.317394 0.158690 -0.074000 0.000000 0.062745 0.141176
0.317351 0.160688 -0.072000 0.019608 0.258824 0.411765
0.317351 0.162665 -0.072000 0.145098 0.525490 0.713725
0.317351 0.164642 -0.072000 0.149020 0.568627 0.788235
0.317394 0.166619 -0.074000 0.094118 0.572549 0.807843
0.317373 0.168598 -0.073000 0.043137 0.533333 0.760784
0.317373 0.170578 -0.073000 0.027451 0.478431 0.686275
0.317373 0.172557 -0.073000 0.003922 0.419608 0.623529
0.317351 0.178479 -0.072000 0.160784 0.580392 0.800000
0.317394 0.180495 -0.074000 0.000000 0.427451 0.650980
0.317415 0.182499 -0.075000 0.027451 0.501961 0.721569
0.317458 0.184534 -0.077000 0.086275 0.576471 0.796078
0.317564 0.186663 -0.082000 0.164706 0.627451 0.827451
0.315467 0.154678 -0.077000 0.196078 0.286275 0.301961
0.315319 0.162680 -0.069000 0.000000 0.356863 0.568627
0.315338 0.164646 -0.070000 0.023529 0.458824 0.682353
0.315393 0.166619 -0.073000 0.023529 0.517647 0.737255
0.315393 0.168598 -0.073000 0.007843 0.509804 0.729412
0.315375 0.170572 -0.072000 0.000000 0.439216 0.658824
0.315375 0.172549 -0.072000 0.000000 0.396078 0.615686
0.315393 0.178496 -0.073000 0.000000 0.400000 0.623529
0.315412 0.180495 -0.074000 0.019608 0.392157 0.615686
0.315430 0.182499 -0.075000 0.000000 0.333333 0.564706
0.315412 0.184459 -0.074000 0.180392 0.619608 0.839216
0.315504 0.186580 -0.079000 0.196078 0.662745 0.878431
0.313366 0.164646 -0.070000 0.011765 0.427451 0.654902
0.313414 0.166619 -0.073000 0.121569 0.568627 0.800000
0.313414 0.168598 -0.073000 0.098039 0.580392 0.800000
0.313414 0.170578 -0.073000 0.000000 0.447059 0.670588
0.313398 0.172549 -0.072000 0.000000 0.407843 0.623529
0.313398 0.174525 -0.072000 0.000000 0.364706 0.592157
0.313398 0.176502 -0.072000 0.164706 0.600000 0.819608
0.313414 0.178496 -0.073000 0.000000 0.321569 0.552941
0.313429 0.180495 -0.074000 0.000000 0.254902 0.494118
0.313445 0.182499 -0.075000 0.000000 0.196078 0.435294
0.313414 0.184434 -0.073000 0.223529 0.635294 0.854902
0.313461 0.186497 -0.076000 0.125490 0.607843 0.827451
0.313856 0.201581 -0.101000 0.047059 0.090196 0.062745
0.313824 0.203538 -0.099000 0.047059 0.101961 0.070588
0.313808 0.205536 -0.098000 0.023529 0.078431 0.043137
0.313808 0.207584 -0.098000 0.031373 0.098039 0.050980
0.313808 0.209632 -0.098000 0.023529 0.094118 0.031373
0.313808 0.211679 -0.098000 0.015686 0.090196 0.011765
0.313777 0.213601 -0.096000 0.003922 0.090196 0.000000
0.313777 0.215643 -0.096000 0.078431 0.164706 0.062745
0.313777 0.217685 -0.096000 0.290196 0.403922 0.219608
0.313808 0.219870 -0.098000 0.478431 0.588235 0.384314
0.311473 0.156682 -0.076000 0.152941 0.470588 0.619608
0.311421 0.158711 -0.072000 0.000000 0.364706 0.549020
0.311421 0.160688 -0.072000 0.250980 0.627451 0.827451
0.311421 0.162665 -0.072000 0.011765 0.423529 0.635294
0.311421 0.164642 -0.072000 0.000000 0.400000 0.623529
0.311421 0.166618 -0.072000 0.000000 0.349020 0.576471
0.311421 0.168595 -0.072000 0.152941 0.607843 0.831373
0.311434 0.170578 -0.073000 0.007843 0.509804 0.729412
0.311434 0.172557 -0.073000 0.000000 0.482353 0.701961
0.311447 0.174548 -0.074000 0.000000 0.454902 0.674510
0.311447 0.176530 -0.074000 0.109804 0.584314 0.803922
0.311447 0.178512 -0.074000 0.050980 0.513725 0.737255
0.311447 0.180495 -0.074000 0.000000 0.180392 0.423529
0.311460 0.182499 -0.075000 0.000000 0.254902 0.494118
0.311447 0.184459 -0.074000 0.090196 0.643137 0.882353
0.311473 0.186497 -0.076000 0.039216 0.600000 0.839216
0.311578 0.188728 -0.084000 0.176471 0.690196 0.905882
0.311721 0.191103 -0.095000 0.019608 0.400000 0.588235
0.311787 0.193322 -0.100000 0.003922 0.070588 0.090196
0.311774 0.195336 -0.099000 0.035294 0.098039 0.066667
0.311774 0.197387 -0.099000 0.023529 0.113725 0.035294
0.311734 0.199305 -0.096000 0.003922 0.098039 0.000000
0.311721 0.201300 -0.095000 0.000000 0.094118 0.000000
0.311695 0.203241 -0.093000 0.105882 0.223529 0.023529
0.311695 0.205275 -0.093000 0.298039 0.439216 0.129412
0.311695 0.207309 -0.093000 0.478431 0.631373 0.290196
0.311708 0.209401 -0.094000 0.521569 0.686275 0.341176
0.311695 0.211377 -0.093000 0.541176 0.705882 0.360784
0.311682 0.213348 -0.092000 0.556863 0.737255 0.360784
0.311695 0.215445 -0.093000 0.564706 0.745098 0.360784
0.311708 0.217548 -0.094000 0.592157 0.784314 0.345098
0.311734 0.219728 -0.096000 0.658824 0.835294 0.403922
0.311787 0.222066 -0.100000 0.596078 0.725490 0.478431
0.309506 0.156655 -0.078000 0.062745 0.321569 0.447059
0.309455 0.158701 -0.073000 0.023529 0.419608 0.603922
0.309455 0.160680 -0.073000 0.200000 0.615686 0.811765
0.309444 0.162665 -0.072000 0.000000 0.329412 0.552941
0.309434 0.164644 -0.071000 0.000000 0.262745 0.501961
0.309434 0.166618 -0.071000 0.000000 0.180392 0.431373
0.309444 0.168595 -0.072000 0.149020 0.556863 0.784314
0.309455 0.170578 -0.073000 0.039216 0.564706 0.792157
0.309455 0.172557 -0.073000 0.023529 0.541176 0.768627
0.309455 0.174537 -0.073000 0.027451 0.537255 0.764706
0.309465 0.176530 -0.074000 0.039216 0.549020 0.776471
0.309475 0.178529 -0.075000 0.074510 0.584314 0.811765
0.309465 0.180495 -0.074000 0.125490 0.635294 0.862745
0.309486 0.182521 -0.076000 0.078431 0.615686 0.847059
0.309475 0.184484 -0.075000 0.023529 0.611765 0.854902
0.309486 0.186497 -0.076000 0.011765 0.600000 0.843137
0.309537 0.188637 -0.081000 0.250980 0.694118 0.878431
0.309630 0.190937 -0.090000 0.133333 0.345098 0.411765
0.309682 0.193142 -0.095000 0.129412 0.266667 0.188235
0.309682 0.195182 -0.095000 0.352941 0.505882 0.352941
0.309682 0.197221 -0.095000 0.494118 0.647059 0.415686
0.309661 0.199173 -0.093000 0.556863 0.713725 0.435294
0.309661 0.201207 -0.093000 0.603922 0.776471 0.400000
0.309640 0.203142 -0.091000 0.596078 0.772549 0.368627
0.309651 0.205223 -0.092000 0.549020 0.721569 0.333333
0.309661 0.207309 -0.093000 0.482353 0.662745 0.278431
0.309661 0.209343 -0.093000 0.431373 0.615686 0.254902
0.309651 0.211317 -0.092000 0.290196 0.474510 0.113725
0.309640 0.213285 -0.091000 0.380392 0.580392 0.192157
0.309640 0.215313 -0.091000 0.529412 0.721569 0.321569
0.309651 0.217411 -0.092000 0.549020 0.756863 0.294118
0.309682 0.219656 -0.095000 0.596078 0.784314 0.329412
0.309713 0.221918 -0.098000 0.682353 0.843137 0.470588
0.309733 0.224120 -0.100000 0.082353 0.160784 0.090196
0.307521 0.156642 -0.079000 0.054902 0.294118 0.407843
0.307483 0.158690 -0.074000 0.094118 0.513725 0.694118
0.307475 0.160680 -0.073000 0.027451 0.478431 0.686275
0.307468 0.162665 -0.072000 0.125490 0.537255 0.756863
0.307452 0.164646 -0.070000 0.000000 0.192157 0.431373
0.307452 0.166618 -0.070000 0.000000 0.196078 0.439216
0.307460 0.168592 -0.071000 0.141176 0.643137 0.870588
0.307483 0.170584 -0.074000 0.015686 0.596078 0.823529
0.307475 0.172557 -0.073000 0.011765 0.592157 0.827451
0.307475 0.174537 -0.073000 0.027451 0.584314 0.811765
0.307475 0.176516 -0.073000 0.035294 0.584314 0.811765
0.307490 0.178529 -0.075000 0.047059 0.596078 0.823529
0.307498 0.180534 -0.076000 0.054902 0.603922 0.831373
0.307506 0.182544 -0.077000 0.058824 0.603922 0.843137
0.307506 0.184534 -0.077000 0.035294 0.607843 0.843137
0.307506 0.186525 -0.077000 0.023529 0.592157 0.839216
0.307521 0.188576 -0.079000 0.074510 0.611765 0.827451
0.307559 0.190738 -0.084000 0.341176 0.698039 0.839216
0.307612 0.192998 -0.091000 0.309804 0.568627 0.435294
0.307627 0.195104 -0.093000 0.321569 0.556863 0.290196
0.307627 0.197138 -0.093000 0.290196 0.505882 0.180392
0.307619 0.199128 -0.092000 0.411765 0.615686 0.282353
0.307627 0.201207 -0.093000 0.513725 0.721569 0.294118
0.307619 0.203191 -0.092000 0.509804 0.721569 0.278431
0.307627 0.205275 -0.093000 0.458824 0.654902 0.247059
0.307627 0.207309 -0.093000 0.415686 0.607843 0.207843
0.307627 0.209343 -0.093000 0.254902 0.454902 0.066667
0.307619 0.211317 -0.092000 0.592157 0.800000 0.411765
0.307619 0.213348 -0.092000 0.423529 0.639216 0.211765
0.307627 0.215445 -0.093000 0.388235 0.607843 0.164706
0.307635 0.217548 -0.094000 0.611765 0.815686 0.368627
0.307650 0.219728 -0.096000 0.592157 0.780392 0.333333
0.307665 0.221918 -0.098000 0.580392 0.694118 0.505882
0.307695 0.224273 -0.102000 0.082353 0.164706 0.086275
0.305500 0.158690 -0.074000 0.121569 0.572549 0.749020
0.305491 0.160688 -0.072000 0.035294 0.556863 0.768627
0.305486 0.162670 -0.071000 0.023529 0.584314 0.796078
0.305491 0.164642 -0.072000 0.113725 0.615686 0.835294
0.305491 0.166618 -0.072000 0.094118 0.631373 0.862745
0.305496 0.168598 -0.073000 0.035294 0.615686 0.843137
0.305500 0.170584 -0.074000 0.015686 0.603922 0.839216
0.305500 0.172566 -0.074000 0.011765 0.600000 0.835294
0.305500 0.174548 -0.074000 0.027451 0.584314 0.811765
0.305496 0.176516 -0.073000 0.011765 0.568627 0.796078
0.305496 0.178496 -0.073000 0.015686 0.564706 0.792157
0.305496 0.180475 -0.073000 0.000000 0.545098 0.772549
0.305496 0.182455 -0.073000 0.003922 0.552941 0.780392
0.305505 0.184484 -0.075000 0.000000 0.545098 0.772549
0.305510 0.186497 -0.076000 0.007843 0.545098 0.784314
0.305515 0.188515 -0.077000 0.023529 0.560784 0.784314
0.305539 0.190671 -0.082000 0.266667 0.654902 0.807843
0.305573 0.192927 -0.089000 0.062745 0.356863 0.231373
0.305593 0.195104 -0.093000 0.172549 0.415686 0.160784
0.305598 0.197180 -0.094000 0.525490 0.737255 0.419608
0.305603 0.199261 -0.095000 0.380392 0.596078 0.262745
0.305603 0.201300 -0.095000 0.541176 0.749020 0.356863
0.305598 0.203290 -0.094000 0.533333 0.741176 0.309804
0.305598 0.205327 -0.094000 0.427451 0.623529 0.207843
0.305598 0.207364 -0.094000 0.376471 0.568627 0.168627
0.305598 0.209401 -0.094000 0.266667 0.466667 0.078431
0.305593 0.211377 -0.093000 0.596078 0.800000 0.423529
0.305593 0.213411 -0.093000 0.356863 0.572549 0.145098
0.305588 0.215379 -0.092000 0.345098 0.556863 0.149020
0.305593 0.217479 -0.093000 0.298039 0.501961 0.094118
0.305603 0.219656 -0.095000 0.615686 0.815686 0.388235
0.305617 0.221918 -0.098000 0.725490 0.850980 0.619608
0.305637 0.224273 -0.102000 0.086275 0.172549 0.070588
0.303520 0.158680 -0.075000 0.137255 0.584314 0.752941
0.303516 0.160680 -0.073000 0.054902 0.584314 0.796078
0.303516 0.162660 -0.073000 0.019608 0.596078 0.807843
0.303516 0.164639 -0.073000 0.047059 0.603922 0.831373
0.303516 0.166619 -0.073000 0.054902 0.607843 0.847059
0.303514 0.168595 -0.072000 0.043137 0.603922 0.843137
0.303518 0.170584 -0.074000 0.043137 0.596078 0.843137
0.303518 0.172566 -0.074000 0.027451 0.588235 0.827451
0.303518 0.174548 -0.074000 0.011765 0.560784 0.788235
0.303516 0.176516 -0.073000 0.015686 0.517647 0.745098
0.303514 0.178479 -0.072000 0.027451 0.498039 0.729412
0.303512 0.180436 -0.071000 0.000000 0.407843 0.635294
0.303514 0.182432 -0.072000 0.000000 0.411765 0.643137
0.303523 0.184509 -0.076000 0.101961 0.564706 0.796078
0.303525 0.186525 -0.077000 0.082353 0.552941 0.784314
0.303527 0.188545 -0.078000 0.043137 0.560784 0.788235
0.303535 0.190671 -0.082000 0.145098 0.650980 0.854902
0.303548 0.192891 -0.088000 0.000000 0.317647 0.411765
0.303561 0.195143 -0.094000 0.435294 0.721569 0.556863
0.303563 0.197221 -0.095000 0.325490 0.541176 0.207843
0.303563 0.199261 -0.095000 0.270588 0.494118 0.168627
0.303561 0.201253 -0.094000 0.145098 0.345098 0.023529
0.303561 0.203290 -0.094000 0.588235 0.792157 0.415686
0.303561 0.205327 -0.094000 0.458824 0.674510 0.215686
0.303563 0.207419 -0.095000 0.407843 0.607843 0.176471
0.303565 0.209516 -0.096000 0.337255 0.545098 0.117647
0.303561 0.211438 -0.094000 0.580392 0.780392 0.392157
0.303561 0.213474 -0.094000 0.141176 0.325490 0.000000
0.303559 0.215445 -0.093000 0.160784 0.352941 0.031373
0.303561 0.217548 -0.094000 0.168627 0.368627 0.000000
0.303563 0.219656 -0.095000 0.666667 0.866667 0.439216
0.303570 0.221918 -0.098000 0.713725 0.854902 0.545098
0.303578 0.224273 -0.102000 0.086275 0.192157 0.047059
0.301535 0.158669 -0.076000 0.027451 0.380392 0.521569
0.301537 0.160688 -0.072000 0.066667 0.584314 0.784314
0.301537 0.162665 -0.072000 0.007843 0.576471 0.788235
0.301537 0.164639 -0.073000 0.007843 0.584314 0.803922
0.301536 0.168601 -0.074000 0.007843 0.560784 0.800000
0.301535 0.170589 -0.075000 0.011765 0.564706 0.803922
0.301536 0.172566 -0.074000 0.003922 0.556863 0.796078
0.301535 0.174559 -0.075000 0.011765 0.513725 0.741176
0.301537 0.176516 -0.073000 0.000000 0.443137 0.674510
0.301538 0.178462 -0.071000 0.000000 0.372549 0.600000
0.301538 0.180417 -0.070000 0.062745 0.454902 0.682353
0.301537 0.182432 -0.072000 0.086275 0.533333 0.756863
0.301536 0.184459 -0.074000 0.000000 0.392157 0.615686
0.301535 0.186497 -0.076000 0.000000 0.388235 0.611765
0.301534 0.188515 -0.077000 0.113725 0.611765 0.847059
0.301531 0.190671 -0.082000 0.101961 0.596078 0.815686
0.301528 0.192855 -0.087000 0.243137 0.580392 0.705882
0.301524 0.195143 -0.094000 0.423529 0.694118 0.560784
0.301524 0.197221 -0.095000 0.156863 0.376471 0.066667
0.301524 0.199261 -0.095000 0.168627 0.364706 0.082353
0.301524 0.201253 -0.094000 0.117647 0.305882 0.007843
0.301524 0.203340 -0.095000 0.607843 0.803922 0.466667
0.301524 0.205379 -0.095000 0.517647 0.737255 0.254902
0.301524 0.207419 -0.095000 0.498039 0.705882 0.247059
0.301524 0.209459 -0.095000 0.474510 0.682353 0.223529
0.301524 0.211438 -0.094000 0.545098 0.749020 0.301961
0.301524 0.213474 -0.094000 0.262745 0.450980 0.074510
0.301524 0.215511 -0.094000 0.141176 0.317647 0.000000
0.301524 0.217548 -0.094000 0.635294 0.831373 0.349020
0.301524 0.219585 -0.094000 0.639216 0.839216 0.329412
0.301524 0.221696 -0.095000 0.721569 0.878431 0.505882
0.301521 0.224043 -0.099000 0.278431 0.392157 0.207843
0.299531 0.158617 -0.081000 0.160784 0.286275 0.305882
0.299557 0.160680 -0.073000 0.172549 0.576471 0.749020
0.299560 0.162665 -0.072000 0.031373 0.521569 0.741176
0.299564 0.166618 -0.071000 0.000000 0.380392 0.607843
0.299560 0.168595 -0.072000 0.043137 0.458824 0.694118
0.299554 0.170584 -0.074000 0.027451 0.537255 0.768627
0.299554 0.172566 -0.074000 0.015686 0.541176 0.772549
0.299551 0.174559 -0.075000 0.015686 0.478431 0.709804
0.299554 0.176530 -0.074000 0.000000 0.411765 0.635294
0.299554 0.178512 -0.074000 0.000000 0.384314 0.611765
0.299554 0.180495 -0.074000 0.196078 0.631373 0.854902
0.299547 0.182521 -0.076000 0.047059 0.482353 0.705882
0.299544 0.184534 -0.077000 0.047059 0.380392 0.615686
0.299544 0.186525 -0.077000 0.023529 0.329412 0.564706
0.299544 0.188515 -0.077000 0.027451 0.462745 0.686275
0.299531 0.190638 -0.081000 0.105882 0.607843 0.827451
0.299511 0.192855 -0.087000 0.149020 0.678431 0.862745
0.299491 0.195104 -0.093000 0.419608 0.694118 0.450980
0.299484 0.197221 -0.095000 0.435294 0.678431 0.341176
0.299484 0.199261 -0.095000 0.101961 0.309804 0.000000
0.299484 0.201300 -0.095000 0.415686 0.623529 0.231373
0.299484 0.203340 -0.095000 0.588235 0.800000 0.352941
0.299484 0.205379 -0.095000 0.564706 0.780392 0.278431
0.299484 0.207419 -0.095000 0.568627 0.776471 0.274510
0.299484 0.209459 -0.095000 0.576471 0.772549 0.290196
0.299484 0.211498 -0.095000 0.572549 0.776471 0.294118
0.299484 0.213538 -0.095000 0.603922 0.796078 0.333333
0.299484 0.215577 -0.095000 0.662745 0.854902 0.384314
0.299487 0.217548 -0.094000 0.650980 0.847059 0.321569
0.299487 0.219585 -0.094000 0.654902 0.850980 0.333333
0.299487 0.221622 -0.094000 0.705882 0.870588 0.470588
0.299471 0.224043 -0.099000 0.070588 0.188235 0.000000
0.297572 0.160673 -0.074000 0.133333 0.521569 0.666667
0.297590 0.162670 -0.071000 0.011765 0.450980 0.654902
0.297596 0.164646 -0.070000 0.000000 0.349020 0.560784
0.297584 0.166618 -0.072000 0.215686 0.615686 0.843137
0.297578 0.168598 -0.073000 0.000000 0.415686 0.639216
0.297572 0.170584 -0.074000 0.000000 0.454902 0.690196
0.297566 0.172574 -0.075000 0.094118 0.603922 0.835294
0.297560 0.174571 -0.076000 0.007843 0.498039 0.725490
0.297560 0.176558 -0.076000 0.000000 0.439216 0.662745
0.297553 0.178563 -0.077000 0.015686 0.431373 0.658824
0.297553 0.180553 -0.077000 0.047059 0.482353 0.705882
0.297553 0.182544 -0.077000 0.007843 0.447059 0.670588
0.297560 0.184509 -0.076000 0.000000 0.207843 0.447059
0.297560 0.186497 -0.076000 0.000000 0.184314 0.423529
0.297560 0.188484 -0.076000 0.094118 0.533333 0.756863
0.297535 0.190605 -0.080000 0.090196 0.619608 0.835294
0.297505 0.192783 -0.085000 0.117647 0.647059 0.858824
0.297475 0.194988 -0.090000 0.372549 0.666667 0.431373
0.297451 0.197180 -0.094000 0.482353 0.741176 0.372549
0.297438 0.199305 -0.096000 0.564706 0.784314 0.396078
0.297438 0.201347 -0.096000 0.580392 0.800000 0.352941
0.297444 0.203340 -0.095000 0.580392 0.792157 0.309804
0.297444 0.205379 -0.095000 0.580392 0.788235 0.290196
0.297444 0.207419 -0.095000 0.584314 0.780392 0.298039
0.297444 0.209459 -0.095000 0.592157 0.788235 0.305882
0.297438 0.211559 -0.096000 0.596078 0.792157 0.309804
0.297451 0.213474 -0.094000 0.627451 0.811765 0.333333
0.297451 0.215511 -0.094000 0.639216 0.819608 0.341176
0.297463 0.217411 -0.092000 0.639216 0.819608 0.341176
0.297463 0.219442 -0.092000 0.643137 0.831373 0.337255
0.297463 0.221473 -0.092000 0.654902 0.823529 0.400000
0.297426 0.223966 -0.098000 0.294118 0.431373 0.141176
0.295545 0.160634 -0.079000 0.164706 0.462745 0.560784
0.295589 0.162655 -0.074000 0.031373 0.435294 0.615686
0.295607 0.164642 -0.072000 0.000000 0.407843 0.596078
0.295598 0.166619 -0.073000 0.109804 0.521569 0.733333
0.295598 0.168598 -0.073000 0.000000 0.392157 0.615686
0.295589 0.170584 -0.074000 0.019608 0.360784 0.603922
0.295581 0.172574 -0.075000 0.094118 0.470588 0.709804
0.295572 0.174571 -0.076000 0.050980 0.576471 0.803922
0.295563 0.176572 -0.077000 0.000000 0.517647 0.745098
0.295563 0.178563 -0.077000 0.000000 0.501961 0.729412
0.295563 0.180553 -0.077000 0.000000 0.486275 0.705882
0.295563 0.182544 -0.077000 0.090196 0.592157 0.811765
0.295554 0.184559 -0.078000 0.000000 0.454902 0.686275
0.295563 0.186525 -0.077000 0.003922 0.474510 0.705882
0.295563 0.188515 -0.077000 0.074510 0.654902 0.890196
0.295545 0.190572 -0.079000 0.019608 0.607843 0.843137
0.295510 0.192711 -0.083000 0.129412 0.647059 0.835294
0.295449 0.194988 -0.090000 0.407843 0.733333 0.678431
0.295405 0.197221 -0.095000 0.494118 0.745098 0.407843
0.295396 0.199305 -0.096000 0.556863 0.780392 0.352941
0.295396 0.201347 -0.096000 0.568627 0.788235 0.313725
0.295414 0.203290 -0.094000 0.576471 0.788235 0.305882
0.295405 0.205379 -0.095000 0.588235 0.780392 0.309804
0.295405 0.207419 -0.095000 0.580392 0.776471 0.294118
0.295396 0.209516 -0.096000 0.564706 0.756863 0.294118
0.295396 0.211559 -0.096000 0.556863 0.749020 0.286275
0.295405 0.213538 -0.095000 0.552941 0.741176 0.286275
0.295405 0.215577 -0.095000 0.576471 0.756863 0.301961
0.295422 0.217479 -0.093000 0.564706 0.749020 0.278431
0.295414 0.219585 -0.094000 0.596078 0.780392 0.301961
0.295414 0.221622 -0.094000 0.623529 0.803922 0.325490
0.295370 0.224043 -0.099000 0.564706 0.717647 0.368627
0.293584 0.162645 -0.076000 0.031373 0.443137 0.615686
0.293607 0.164637 -0.074000 0.050980 0.470588 0.650980
0.293607 0.166619 -0.074000 0.011765 0.423529 0.635294
0.293596 0.168605 -0.075000 0.000000 0.274510 0.501961
0.293584 0.170595 -0.076000 0.000000 0.200000 0.450980
0.293584 0.172583 -0.076000 0.043137 0.372549 0.615686
0.293573 0.174582 -0.077000 0.047059 0.596078 0.819608
0.293584 0.176558 -0.076000 0.023529 0.572549 0.796078
0.293584 0.178546 -0.076000 0.023529 0.564706 0.788235
0.293584 0.180534 -0.076000 0.027451 0.576471 0.800000
0.293584 0.182521 -0.076000 0.027451 0.584314 0.807843
0.293573 0.184534 -0.077000 0.023529 0.600000 0.819608
0.293584 0.186497 -0.076000 0.027451 0.619608 0.843137
0.293573 0.188515 -0.077000 0.015686 0.607843 0.850980
0.293561 0.190539 -0.078000 0.011765 0.603922 0.839216
0.293515 0.192675 -0.082000 0.078431 0.611765 0.811765
0.293446 0.194911 -0.088000 0.403922 0.725490 0.721569
0.293377 0.197180 -0.094000 0.400000 0.643137 0.388235
0.293365 0.199261 -0.095000 0.458824 0.686275 0.305882
0.293365 0.201300 -0.095000 0.513725 0.725490 0.282353
0.293365 0.203340 -0.095000 0.556863 0.764706 0.294118
0.293354 0.205432 -0.096000 0.572549 0.760784 0.313725
0.293365 0.207419 -0.095000 0.541176 0.729412 0.282353
0.293365 0.209459 -0.095000 0.513725 0.701961 0.278431
0.293365 0.211498 -0.095000 0.458824 0.647059 0.223529
0.293377 0.213474 -0.094000 0.345098 0.533333 0.117647
0.293365 0.215577 -0.095000 0.403922 0.592157 0.168627
0.293365 0.217617 -0.095000 0.564706 0.741176 0.341176
0.293365 0.219656 -0.095000 0.576471 0.756863 0.333333
0.293365 0.221696 -0.095000 0.600000 0.784314 0.313725
0.293319 0.224043 -0.099000 0.698039 0.854902 0.482353
0.291554 0.162630 -0.079000 0.105882 0.537255 0.705882
0.291611 0.164635 -0.075000 0.000000 0.462745 0.654902
0.291625 0.166619 -0.074000 0.129412 0.603922 0.819608
0.291611 0.168605 -0.075000 0.000000 0.192157 0.419608
0.291596 0.170595 -0.076000 0.000000 0.184314 0.423529
0.291596 0.172583 -0.076000 0.090196 0.623529 0.854902
0.291582 0.174582 -0.077000 0.015686 0.607843 0.831373
0.291596 0.176558 -0.076000 0.023529 0.596078 0.823529
0.291611 0.178529 -0.075000 0.050980 0.600000 0.823529
0.291611 0.180514 -0.075000 0.035294 0.576471 0.800000
0.291596 0.182521 -0.076000 0.023529 0.588235 0.815686
0.291568 0.184559 -0.078000 0.027451 0.592157 0.819608
0.291582 0.186525 -0.077000 0.019608 0.592157 0.827451
0.291568 0.188545 -0.078000 0.035294 0.596078 0.835294
0.291568 0.190539 -0.078000 0.027451 0.580392 0.827451
0.291525 0.192639 -0.081000 0.047059 0.580392 0.811765
0.291454 0.194834 -0.086000 0.196078 0.658824 0.850980
0.291369 0.197097 -0.092000 0.101961 0.376471 0.341176
0.291326 0.199261 -0.095000 0.250980 0.486275 0.219608
0.291326 0.201300 -0.095000 0.482353 0.698039 0.333333
0.291326 0.203340 -0.095000 0.517647 0.725490 0.333333
0.291326 0.205379 -0.095000 0.560784 0.764706 0.282353
0.291340 0.207364 -0.094000 0.474510 0.666667 0.227451
0.291340 0.209401 -0.094000 0.443137 0.631373 0.215686
0.291326 0.211498 -0.095000 0.325490 0.513725 0.105882
0.291340 0.213474 -0.094000 0.458824 0.650980 0.250980
0.291326 0.215577 -0.095000 0.509804 0.701961 0.301961
0.291340 0.217548 -0.094000 0.384314 0.576471 0.137255
0.291326 0.219656 -0.095000 0.501961 0.690196 0.266667
0.291312 0.221770 -0.096000 0.623529 0.811765 0.364706
0.291283 0.223966 -0.098000 0.686275 0.850980 0.450980
0.291226 0.226332 -0.102000 0.074510 0.192157 0.000000
0.289541 0.162624 -0.080000 0.137255 0.568627 0.733333
0.289626 0.164635 -0.075000 0.058824 0.560784 0.756863
0.289643 0.166619 -0.074000 0.035294 0.576471 0.792157
0.289609 0.168608 -0.076000 0.062745 0.603922 0.819608
0.289575 0.170607 -0.078000 0.050980 0.615686 0.843137
0.289575 0.172600 -0.078000 0.027451 0.619608 0.843137
0.289609 0.174571 -0.076000 0.015686 0.607843 0.831373
0.289626 0.176544 -0.075000 0.070588 0.643137 0.870588
0.289626 0.178529 -0.075000 0.035294 0.576471 0.800000
0.289609 0.180534 -0.076000 0.000000 0.525490 0.752941
0.289592 0.182544 -0.077000 0.003922 0.545098 0.768627
0.289592 0.184534 -0.077000 0.000000 0.517647 0.741176
0.289592 0.186525 -0.077000 0.000000 0.490196 0.725490
0.289592 0.188515 -0.077000 0.000000 0.482353 0.713725
0.289575 0.190539 -0.078000 0.019608 0.525490 0.768627
0.289541 0.192603 -0.080000 0.043137 0.568627 0.800000
0.289473 0.194757 -0.084000 0.203922 0.670588 0.878431
0.289371 0.197014 -0.090000 0.388235 0.674510 0.662745
0.289286 0.199261 -0.095000 0.498039 0.733333 0.501961
0.289269 0.201347 -0.096000 0.254902 0.474510 0.125490
0.289269 0.203389 -0.096000 0.419608 0.631373 0.282353
0.289286 0.205379 -0.095000 0.572549 0.788235 0.360784
0.289286 0.207419 -0.095000 0.450980 0.658824 0.227451
0.289303 0.209401 -0.094000 0.400000 0.596078 0.188235
0.289303 0.211438 -0.094000 0.305882 0.501961 0.094118
0.289303 0.213474 -0.094000 0.611765 0.803922 0.443137
0.289303 0.215511 -0.094000 0.368627 0.564706 0.188235
0.289303 0.217548 -0.094000 0.364706 0.556863 0.196078
0.289286 0.219656 -0.095000 0.243137 0.427451 0.066667
0.289269 0.221770 -0.096000 0.647059 0.835294 0.411765
