0.291383 0.138225 -0.091000 0.058824 0.149020 0.023529
0.291426 0.140359 -0.088000 0.278431 0.384314 0.200000
0.291440 0.142412 -0.087000 0.552941 0.678431 0.443137
0.291426 0.144400 -0.088000 0.752941 0.874510 0.615686
0.291354 0.146286 -0.093000 0.643137 0.733333 0.576471
0.291297 0.148224 -0.097000 0.121569 0.184314 0.109804
0.289303 0.109596 -0.094000 0.078431 0.117647 0.082353
0.289337 0.111780 -0.092000 0.074510 0.121569 0.086275
0.289354 0.113882 -0.091000 0.070588 0.125490 0.082353
0.289320 0.115775 -0.093000 0.047059 0.117647 0.054902
0.289320 0.117809 -0.093000 0.050980 0.121569 0.058824
0.289320 0.119843 -0.093000 0.047059 0.129412 0.050980
0.289303 0.121817 -0.094000 0.035294 0.121569 0.027451
0.289320 0.123911 -0.093000 0.000000 0.098039 0.000000
0.289303 0.125891 -0.094000 0.003922 0.113725 0.000000
0.289354 0.128082 -0.091000 0.023529 0.152941 0.000000
0.289371 0.130160 -0.090000 0.266667 0.403922 0.125490
0.289422 0.132323 -0.087000 0.564706 0.725490 0.352941
0.289405 0.134298 -0.088000 0.631373 0.803922 0.380392
0.289405 0.136318 -0.088000 0.619608 0.803922 0.364706
0.289405 0.138339 -0.088000 0.619608 0.811765 0.372549
0.289439 0.140429 -0.086000 0.611765 0.800000 0.345098
0.289473 0.142509 -0.084000 0.615686 0.815686 0.345098
0.289439 0.144459 -0.086000 0.658824 0.839216 0.384314
0.289320 0.146286 -0.093000 0.741176 0.882353 0.580392
0.287266 0.107560 -0.094000 0.054902 0.109804 0.066667
0.287345 0.109901 -0.090000 0.050980 0.109804 0.058824
0.287365 0.112000 -0.089000 0.035294 0.105882 0.043137
0.287404 0.114164 -0.087000 0.027451 0.109804 0.023529
0.287365 0.116046 -0.089000 0.007843 0.101961 0.000000
0.287365 0.118069 -0.089000 0.094118 0.196078 0.066667
0.287345 0.120030 -0.090000 0.352941 0.478431 0.247059
0.287365 0.122116 -0.089000 0.639216 0.776471 0.490196
0.287385 0.124196 -0.088000 0.678431 0.831373 0.490196
0.287404 0.126270 -0.087000 0.662745 0.831373 0.431373
0.287424 0.128340 -0.086000 0.654902 0.835294 0.376471
0.287424 0.130354 -0.086000 0.635294 0.819608 0.349020
0.287463 0.132461 -0.084000 0.572549 0.776471 0.294118
0.287424 0.134384 -0.086000 0.564706 0.768627 0.286275
0.287424 0.136399 -0.086000 0.447059 0.654902 0.192157
0.287404 0.138377 -0.087000 0.521569 0.725490 0.278431
0.287424 0.140429 -0.086000 0.600000 0.796078 0.349020
0.287424 0.142444 -0.086000 0.580392 0.784314 0.301961
0.287385 0.144400 -0.088000 0.607843 0.788235 0.329412
0.287286 0.146286 -0.093000 0.709804 0.854902 0.537255
0.287188 0.148199 -0.098000 0.086275 0.184314 0.035294
0.285230 0.099412 -0.094000 0.058824 0.133333 0.054902
0.285274 0.101623 -0.092000 0.023529 0.105882 0.019608
0.285252 0.103570 -0.093000 0.015686 0.109804 0.000000
0.285319 0.105849 -0.090000 0.027451 0.129412 0.000000
0.285342 0.107953 -0.089000 0.137255 0.266667 0.019608
0.285387 0.110129 -0.087000 0.454902 0.619608 0.219608
0.285409 0.112220 -0.086000 0.662745 0.831373 0.407843
0.285432 0.114305 -0.085000 0.666667 0.850980 0.380392
0.285432 0.116317 -0.085000 0.627451 0.823529 0.341176
0.285387 0.118199 -0.087000 0.611765 0.807843 0.325490
0.285364 0.120155 -0.088000 0.572549 0.772549 0.301961
0.285409 0.122295 -0.086000 0.490196 0.686275 0.239216
0.285432 0.124366 -0.085000 0.525490 0.717647 0.278431
0.285432 0.126379 -0.085000 0.560784 0.768627 0.266667
0.285432 0.128391 -0.085000 0.580392 0.792157 0.278431
0.285454 0.130452 -0.084000 0.545098 0.741176 0.258824
0.285476 0.132507 -0.083000 0.513725 0.717647 0.235294
0.285432 0.134428 -0.085000 0.454902 0.662745 0.200000
0.285409 0.136399 -0.086000 0.607843 0.819608 0.376471
0.285387 0.138377 -0.087000 0.384314 0.592157 0.160784
0.285364 0.140359 -0.088000 0.356863 0.564706 0.133333
0.285319 0.142315 -0.090000 0.490196 0.698039 0.270588
0.285252 0.144252 -0.093000 0.619608 0.815686 0.368627
0.285185 0.146205 -0.096000 0.674510 0.854902 0.439216
0.285140 0.148199 -0.098000 0.043137 0.156863 0.000000
0.283293 0.087616 -0.090000 0.023529 0.105882 0.027451
0.283293 0.089641 -0.090000 0.011765 0.117647 0.000000
0.283293 0.091667 -0.090000 0.023529 0.101961 0.031373
0.283344 0.093889 -0.088000 0.007843 0.101961 0.007843
0.283344 0.095910 -0.088000 0.054902 0.152941 0.043137
0.283344 0.097930 -0.088000 0.188235 0.301961 0.117647
0.283344 0.099950 -0.088000 0.388235 0.505882 0.301961
0.283369 0.102058 -0.087000 0.631373 0.776471 0.450980
0.283344 0.103991 -0.088000 0.631373 0.792157 0.419608
0.283369 0.106093 -0.087000 0.639216 0.807843 0.403922
0.283394 0.108190 -0.086000 0.627451 0.807843 0.392157
0.283419 0.110281 -0.085000 0.615686 0.811765 0.329412
0.283419 0.112293 -0.085000 0.607843 0.807843 0.305882
0.283419 0.114305 -0.085000 0.603922 0.803922 0.294118
0.283419 0.116317 -0.085000 0.564706 0.764706 0.262745
0.283369 0.118199 -0.087000 0.521569 0.725490 0.239216
0.283369 0.120217 -0.087000 0.462745 0.666667 0.184314
0.283394 0.122295 -0.086000 0.592157 0.800000 0.341176
0.283394 0.124310 -0.086000 0.568627 0.768627 0.305882
0.283394 0.126325 -0.086000 0.619608 0.823529 0.341176
0.283394 0.128340 -0.086000 0.556863 0.760784 0.278431
0.283444 0.130452 -0.084000 0.501961 0.705882 0.223529
0.283444 0.132461 -0.084000 0.494118 0.698039 0.215686
0.283394 0.134384 -0.086000 0.450980 0.658824 0.196078
0.283344 0.136318 -0.088000 0.639216 0.850980 0.407843
0.283369 0.138377 -0.087000 0.396078 0.603922 0.176471
0.283344 0.140359 -0.088000 0.415686 0.623529 0.196078
0.283293 0.142315 -0.090000 0.321569 0.529412 0.101961
0.283218 0.144252 -0.093000 0.635294 0.839216 0.392157
0.283168 0.146232 -0.095000 0.662745 0.847059 0.407843
0.283142 0.148248 -0.096000 0.098039 0.235294 0.000000
0.281240 0.083452 -0.091000 0.203922 0.278431 0.192157
0.281351 0.085916 -0.087000 0.376471 0.501961 0.266667
0.281407 0.088146 -0.085000 0.643137 0.780392 0.494118
0.281407 0.090158 -0.085000 0.486275 0.639216 0.305882
0.281379 0.092070 -0.086000 0.674510 0.835294 0.462745
0.281435 0.094281 -0.084000 0.654902 0.843137 0.388235
0.281435 0.096290 -0.084000 0.643137 0.839216 0.356863
0.281435 0.098300 -0.084000 0.631373 0.827451 0.341176
0.281407 0.100219 -0.085000 0.600000 0.796078 0.301961
0.281435 0.102319 -0.084000 0.568627 0.776471 0.278431
0.281407 0.104244 -0.085000 0.513725 0.717647 0.231373
0.281379 0.106175 -0.086000 0.474510 0.674510 0.211765
0.281379 0.108190 -0.086000 0.564706 0.752941 0.329412
0.281407 0.110281 -0.085000 0.592157 0.784314 0.321569
0.281407 0.112293 -0.085000 0.572549 0.772549 0.270588
0.281435 0.114376 -0.084000 0.537255 0.733333 0.239216
0.281407 0.116317 -0.085000 0.517647 0.713725 0.219608
0.281351 0.118199 -0.087000 0.458824 0.662745 0.180392
0.281351 0.120217 -0.087000 0.635294 0.843137 0.380392
0.281379 0.122295 -0.086000 0.364706 0.576471 0.129412
0.281351 0.124253 -0.087000 0.392157 0.596078 0.149020
0.281323 0.126216 -0.088000 0.352941 0.552941 0.121569
0.281351 0.128288 -0.087000 0.643137 0.847059 0.364706
0.281379 0.130354 -0.086000 0.549020 0.756863 0.258824
0.281379 0.132369 -0.086000 0.517647 0.713725 0.219608
0.281351 0.134341 -0.087000 0.466667 0.670588 0.184314
0.281323 0.136318 -0.088000 0.647059 0.854902 0.392157
0.281323 0.138339 -0.088000 0.298039 0.501961 0.054902
0.281295 0.140324 -0.089000 0.325490 0.513725 0.098039
0.281295 0.142347 -0.089000 0.321569 0.517647 0.070588
0.281240 0.144311 -0.091000 0.647059 0.847059 0.376471
0.281184 0.146286 -0.093000 0.694118 0.882353 0.427451
0.281100 0.148248 -0.096000 0.458824 0.603922 0.309804
0.279272 0.083675 -0.089000 0.427451 0.537255 0.376471
0.279395 0.086134 -0.085000 0.615686 0.792157 0.352941
0.279456 0.088358 -0.083000 0.576471 0.772549 0.317647
0.279395 0.090158 -0.085000 0.545098 0.737255 0.298039
0.279395 0.092170 -0.085000 0.498039 0.694118 0.247059
0.279425 0.094281 -0.084000 0.533333 0.737255 0.254902
0.279425 0.096290 -0.084000 0.576471 0.784314 0.286275
0.279425 0.098300 -0.084000 0.572549 0.772549 0.262745
0.279395 0.100219 -0.085000 0.529412 0.729412 0.219608
0.279456 0.102406 -0.083000 0.501961 0.705882 0.223529
0.279425 0.104328 -0.084000 0.458824 0.666667 0.196078
0.279395 0.106256 -0.085000 0.556863 0.764706 0.305882
0.279395 0.108268 -0.085000 0.372549 0.572549 0.109804
0.279395 0.110281 -0.085000 0.376471 0.576471 0.105882
0.279425 0.112366 -0.084000 0.631373 0.835294 0.352941
0.279395 0.114305 -0.085000 0.533333 0.729412 0.235294
0.279364 0.116250 -0.086000 0.498039 0.694118 0.200000
0.279303 0.118134 -0.088000 0.458824 0.670588 0.188235
0.279303 0.120155 -0.088000 0.639216 0.847059 0.376471
0.279334 0.122235 -0.087000 0.364706 0.576471 0.129412
0.279334 0.124253 -0.087000 0.400000 0.615686 0.156863
0.279303 0.126216 -0.088000 0.345098 0.545098 0.117647
0.279334 0.128288 -0.087000 0.658824 0.862745 0.380392
0.279334 0.130306 -0.087000 0.588235 0.784314 0.290196
0.279303 0.132277 -0.088000 0.584314 0.780392 0.262745
0.279272 0.134255 -0.089000 0.576471 0.768627 0.258824
0.279272 0.136278 -0.089000 0.525490 0.721569 0.239216
0.279303 0.138339 -0.088000 0.627451 0.823529 0.341176
0.279272 0.140324 -0.089000 0.619608 0.815686 0.333333
0.279272 0.142347 -0.089000 0.662745 0.858824 0.376471
0.279242 0.144341 -0.090000 0.639216 0.843137 0.325490
0.279211 0.146340 -0.091000 0.678431 0.870588 0.368627
0.279088 0.148272 -0.095000 0.745098 0.905882 0.533333
0.277316 0.083898 -0.087000 0.094118 0.188235 0.086275
0.277416 0.086242 -0.084000 0.556863 0.733333 0.301961
0.277483 0.088464 -0.082000 0.439216 0.639216 0.176471
0.277449 0.090365 -0.083000 0.615686 0.811765 0.364706
0.277416 0.092271 -0.084000 0.588235 0.792157 0.345098
0.277383 0.094183 -0.085000 0.603922 0.800000 0.345098
0.277349 0.096100 -0.086000 0.615686 0.819608 0.337255
0.277349 0.098115 -0.086000 0.541176 0.749020 0.250980
0.277349 0.100130 -0.086000 0.498039 0.694118 0.200000
0.277416 0.102319 -0.084000 0.486275 0.690196 0.207843
0.277383 0.104244 -0.085000 0.631373 0.839216 0.368627
0.277383 0.106256 -0.085000 0.380392 0.584314 0.137255
0.277349 0.108190 -0.086000 0.423529 0.615686 0.176471
0.277383 0.110281 -0.085000 0.384314 0.568627 0.137255
0.277349 0.112220 -0.086000 0.654902 0.847059 0.384314
0.277349 0.114235 -0.086000 0.588235 0.776471 0.282353
0.277316 0.116182 -0.087000 0.564706 0.756863 0.247059
0.277349 0.118265 -0.086000 0.529412 0.729412 0.227451
0.277349 0.120280 -0.086000 0.627451 0.835294 0.337255
0.277383 0.122354 -0.085000 0.400000 0.596078 0.149020
0.277316 0.124253 -0.087000 0.309804 0.498039 0.074510
0.277316 0.126270 -0.087000 0.552941 0.752941 0.250980
0.277282 0.128237 -0.088000 0.666667 0.858824 0.349020
0.277249 0.130208 -0.089000 0.623529 0.823529 0.282353
0.277216 0.132185 -0.090000 0.623529 0.819608 0.278431
0.277216 0.134211 -0.090000 0.635294 0.831373 0.290196
0.277249 0.136278 -0.089000 0.635294 0.827451 0.301961
0.277282 0.138339 -0.088000 0.623529 0.815686 0.298039
0.277249 0.140324 -0.089000 0.639216 0.827451 0.333333
0.277249 0.142347 -0.089000 0.643137 0.831373 0.337255
0.277282 0.144400 -0.088000 0.635294 0.839216 0.313725
0.277249 0.146394 -0.089000 0.650980 0.843137 0.333333
0.277082 0.148296 -0.094000 0.556863 0.682353 0.450980
0.275226 0.083675 -0.089000 0.023529 0.113725 0.027451
0.275406 0.086242 -0.084000 0.509804 0.682353 0.258824
0.275479 0.088464 -0.082000 0.631373 0.831373 0.403922
0.275479 0.090468 -0.082000 0.380392 0.580392 0.152941
0.275406 0.092271 -0.084000 0.380392 0.584314 0.141176
0.275370 0.094183 -0.085000 0.392157 0.596078 0.149020
0.275334 0.096100 -0.086000 0.572549 0.780392 0.317647
0.275370 0.098207 -0.085000 0.568627 0.772549 0.290196
0.275370 0.100219 -0.085000 0.533333 0.729412 0.235294
0.275370 0.102232 -0.085000 0.494118 0.698039 0.211765
0.275334 0.104160 -0.086000 0.639216 0.843137 0.360784
0.275334 0.106175 -0.086000 0.333333 0.529412 0.074510
0.275370 0.108268 -0.085000 0.333333 0.529412 0.082353
0.275370 0.110281 -0.085000 0.313725 0.494118 0.070588
0.275334 0.112220 -0.086000 0.666667 0.850980 0.380392
0.275298 0.114164 -0.087000 0.615686 0.803922 0.301961
0.275334 0.116250 -0.086000 0.596078 0.788235 0.270588
0.275334 0.118265 -0.086000 0.592157 0.788235 0.270588
0.275334 0.120280 -0.086000 0.568627 0.764706 0.239216
0.275298 0.122235 -0.087000 0.623529 0.823529 0.321569
0.275298 0.124253 -0.087000 0.647059 0.839216 0.337255
0.275298 0.126270 -0.087000 0.643137 0.839216 0.321569
0.275262 0.128237 -0.088000 0.643137 0.835294 0.301961
0.275226 0.130208 -0.089000 0.643137 0.839216 0.290196
0.275226 0.132231 -0.089000 0.650980 0.847059 0.298039
0.275226 0.134255 -0.089000 0.643137 0.839216 0.290196
0.275226 0.136278 -0.089000 0.654902 0.847059 0.321569
0.275226 0.138301 -0.089000 0.647059 0.839216 0.313725
0.275226 0.140324 -0.089000 0.650980 0.843137 0.325490
0.275262 0.142380 -0.088000 0.654902 0.847059 0.329412
0.275298 0.144430 -0.087000 0.650980 0.847059 0.329412
0.275262 0.146421 -0.088000 0.654902 0.847059 0.337255
0.275082 0.148320 -0.093000 0.745098 0.882353 0.596078
0.273203 0.083675 -0.089000 0.054902 0.133333 0.062745
0.273397 0.086242 -0.084000 0.521569 0.686275 0.298039
0.273474 0.088464 -0.082000 0.654902 0.850980 0.443137
0.273513 0.090572 -0.081000 0.376471 0.576471 0.149020
0.273436 0.092372 -0.083000 0.431373 0.631373 0.203922
0.273397 0.094281 -0.084000 0.360784 0.556863 0.109804
0.273358 0.096195 -0.085000 0.431373 0.631373 0.160784
0.273397 0.098300 -0.084000 0.623529 0.811765 0.325490
0.273358 0.100219 -0.085000 0.588235 0.780392 0.278431
0.273358 0.102232 -0.085000 0.584314 0.776471 0.266667
0.273319 0.104160 -0.086000 0.529412 0.721569 0.219608
0.273319 0.106175 -0.086000 0.647059 0.835294 0.349020
0.273280 0.108111 -0.087000 0.568627 0.749020 0.301961
0.273319 0.110205 -0.086000 0.678431 0.866667 0.364706
0.273319 0.112220 -0.086000 0.635294 0.823529 0.313725
0.273319 0.114235 -0.086000 0.635294 0.827451 0.301961
0.273319 0.116250 -0.086000 0.650980 0.843137 0.317647
0.273358 0.118330 -0.085000 0.643137 0.835294 0.309804
0.273358 0.120342 -0.085000 0.650980 0.843137 0.317647
0.273358 0.122354 -0.085000 0.647059 0.839216 0.313725
0.273319 0.124310 -0.086000 0.643137 0.835294 0.309804
0.273319 0.126325 -0.086000 0.643137 0.835294 0.301961
0.273242 0.128237 -0.088000 0.650980 0.847059 0.305882
0.273203 0.130208 -0.089000 0.647059 0.843137 0.301961
0.273203 0.132231 -0.089000 0.631373 0.827451 0.286275
0.273203 0.134255 -0.089000 0.619608 0.811765 0.278431
0.273203 0.136278 -0.089000 0.631373 0.823529 0.298039
0.273164 0.138263 -0.090000 0.631373 0.823529 0.298039
0.273203 0.140324 -0.089000 0.627451 0.819608 0.309804
0.273242 0.142380 -0.088000 0.615686 0.807843 0.298039
0.273319 0.144459 -0.086000 0.615686 0.815686 0.305882
0.273242 0.146421 -0.088000 0.623529 0.823529 0.321569
0.273086 0.148344 -0.092000 0.717647 0.862745 0.537255
0.272853 0.150247 -0.098000 0.066667 0.172549 0.027451
0.271138 0.083564 -0.090000 0.054902 0.133333 0.062745
0.271304 0.086025 -0.086000 0.619608 0.780392 0.411765
0.271429 0.088358 -0.083000 0.517647 0.721569 0.239216
0.271429 0.090365 -0.083000 0.537255 0.737255 0.274510
0.271387 0.092271 -0.084000 0.290196 0.478431 0.054902
0.271387 0.094281 -0.084000 0.325490 0.517647 0.054902
0.271346 0.096195 -0.085000 0.666667 0.862745 0.380392
0.271387 0.098300 -0.084000 0.631373 0.819608 0.317647
0.271387 0.100309 -0.084000 0.623529 0.815686 0.298039
0.271387 0.102319 -0.084000 0.623529 0.815686 0.290196
0.271304 0.104160 -0.086000 0.623529 0.815686 0.298039
0.271304 0.106175 -0.086000 0.623529 0.819608 0.270588
0.271263 0.108111 -0.087000 0.627451 0.823529 0.274510
0.271263 0.110129 -0.087000 0.635294 0.827451 0.301961
0.271304 0.112220 -0.086000 0.639216 0.831373 0.305882
0.271346 0.114305 -0.085000 0.647059 0.839216 0.305882
0.271346 0.116317 -0.085000 0.662745 0.854902 0.321569
0.271263 0.118199 -0.087000 0.564706 0.756863 0.231373
0.271263 0.120217 -0.087000 0.623529 0.815686 0.290196
0.271263 0.122235 -0.087000 0.631373 0.827451 0.301961
0.271304 0.124310 -0.086000 0.647059 0.843137 0.317647
0.271263 0.126270 -0.087000 0.643137 0.835294 0.309804
0.271304 0.128340 -0.086000 0.635294 0.827451 0.294118
0.271221 0.130257 -0.088000 0.627451 0.823529 0.282353
0.271221 0.132277 -0.088000 0.611765 0.803922 0.270588
0.271180 0.134255 -0.089000 0.607843 0.800000 0.274510
0.271180 0.136278 -0.089000 0.592157 0.784314 0.274510
0.271138 0.138263 -0.090000 0.533333 0.729412 0.235294
0.271180 0.140324 -0.089000 0.482353 0.686275 0.203922
0.271221 0.142380 -0.088000 0.584314 0.788235 0.305882
0.271263 0.144430 -0.087000 0.596078 0.796078 0.333333
0.271221 0.146421 -0.088000 0.588235 0.800000 0.313725
0.271096 0.148369 -0.091000 0.701961 0.874510 0.458824
0.270889 0.150290 -0.096000 0.282353 0.400000 0.196078
0.269156 0.083675 -0.089000 0.074510 0.149020 0.098039
0.269289 0.086025 -0.086000 0.670588 0.811765 0.501961
0.269378 0.088252 -0.084000 0.588235 0.784314 0.266667
0.269378 0.090262 -0.084000 0.596078 0.800000 0.274510
0.269378 0.092271 -0.084000 0.658824 0.850980 0.341176
0.269334 0.094183 -0.085000 0.666667 0.854902 0.345098
0.269289 0.096100 -0.086000 0.647059 0.839216 0.313725
0.269334 0.098207 -0.085000 0.643137 0.835294 0.309804
0.269334 0.100219 -0.085000 0.658824 0.843137 0.309804
0.269334 0.102232 -0.085000 0.650980 0.843137 0.309804
0.269334 0.104244 -0.085000 0.647059 0.839216 0.305882
0.269289 0.106175 -0.086000 0.650980 0.843137 0.309804
0.269245 0.108111 -0.087000 0.662745 0.854902 0.321569
0.269289 0.110205 -0.086000 0.658824 0.850980 0.317647
0.269289 0.112220 -0.086000 0.658824 0.850980 0.317647
0.269334 0.114305 -0.085000 0.650980 0.843137 0.317647
0.269334 0.116317 -0.085000 0.639216 0.831373 0.305882
0.269289 0.118265 -0.086000 0.588235 0.784314 0.258824
0.269245 0.120217 -0.087000 0.592157 0.788235 0.270588
0.269245 0.122235 -0.087000 0.545098 0.752941 0.250980
0.269289 0.124310 -0.086000 0.462745 0.670588 0.172549
0.269289 0.126325 -0.086000 0.564706 0.760784 0.305882
0.269245 0.128288 -0.087000 0.580392 0.784314 0.301961
0.269156 0.130208 -0.089000 0.580392 0.776471 0.282353
0.269156 0.132231 -0.089000 0.600000 0.796078 0.270588
0.269112 0.134211 -0.090000 0.537255 0.741176 0.223529
0.269112 0.136237 -0.090000 0.517647 0.725490 0.227451
0.269156 0.138301 -0.089000 0.458824 0.662745 0.180392
0.269201 0.140359 -0.088000 0.607843 0.823529 0.360784
0.269156 0.142347 -0.089000 0.368627 0.576471 0.113725
0.269156 0.144370 -0.089000 0.368627 0.572549 0.125490
0.269112 0.146367 -0.090000 0.647059 0.854902 0.384314
0.269024 0.148344 -0.092000 0.674510 0.850980 0.419608
0.268891 0.150311 -0.095000 0.101961 0.227451 0.000000
0.267039 0.083452 -0.091000 0.086275 0.160784 0.113725
0.267227 0.085916 -0.087000 0.309804 0.439216 0.184314
0.267368 0.088252 -0.084000 0.658824 0.850980 0.341176
0.267415 0.090365 -0.083000 0.650980 0.847059 0.321569
0.267368 0.092271 -0.084000 0.643137 0.835294 0.309804
0.267321 0.094183 -0.085000 0.650980 0.843137 0.317647
0.267321 0.096195 -0.085000 0.647059 0.839216 0.313725
0.267321 0.098207 -0.085000 0.654902 0.847059 0.313725
0.267321 0.100219 -0.085000 0.647059 0.839216 0.305882
0.267321 0.102232 -0.085000 0.635294 0.827451 0.294118
0.267321 0.104244 -0.085000 0.615686 0.807843 0.274510
0.267321 0.106256 -0.085000 0.619608 0.811765 0.286275
0.267274 0.108190 -0.086000 0.584314 0.780392 0.254902
0.267274 0.110205 -0.086000 0.549020 0.745098 0.219608
0.267274 0.112220 -0.086000 0.576471 0.768627 0.243137
0.267274 0.114235 -0.086000 0.603922 0.796078 0.262745
0.267274 0.116250 -0.086000 0.600000 0.792157 0.258824
0.267180 0.118134 -0.088000 0.560784 0.756863 0.239216
0.267180 0.120155 -0.088000 0.525490 0.725490 0.215686
0.267133 0.122116 -0.089000 0.450980 0.662745 0.176471
0.267227 0.124253 -0.087000 0.615686 0.827451 0.345098
0.267180 0.126216 -0.088000 0.360784 0.572549 0.090196
0.267180 0.128237 -0.088000 0.392157 0.603922 0.121569
0.267180 0.130257 -0.088000 0.607843 0.811765 0.325490
0.267227 0.132323 -0.087000 0.529412 0.737255 0.239216
0.267180 0.134298 -0.088000 0.501961 0.705882 0.219608
0.267180 0.136318 -0.088000 0.470588 0.674510 0.192157
0.267180 0.138339 -0.088000 0.611765 0.819608 0.349020
0.267180 0.140359 -0.088000 0.396078 0.615686 0.168627
0.267133 0.142347 -0.089000 0.419608 0.631373 0.188235
0.267039 0.144311 -0.091000 0.400000 0.603922 0.156863
0.266992 0.146313 -0.092000 0.541176 0.749020 0.290196
0.266945 0.148320 -0.093000 0.635294 0.819608 0.388235
0.266851 0.150311 -0.095000 0.560784 0.713725 0.384314
0.266663 0.152276 -0.099000 0.086275 0.192157 0.043137
0.264961 0.083341 -0.092000 0.109804 0.172549 0.137255
0.265210 0.085916 -0.087000 0.431373 0.533333 0.368627
0.265359 0.088252 -0.084000 0.643137 0.831373 0.329412
0.265408 0.090365 -0.083000 0.643137 0.839216 0.313725
0.265359 0.092271 -0.084000 0.658824 0.850980 0.325490
0.265359 0.094281 -0.084000 0.650980 0.843137 0.317647
0.265309 0.096195 -0.085000 0.643137 0.839216 0.313725
0.265309 0.098207 -0.085000 0.631373 0.827451 0.301961
0.265210 0.100040 -0.087000 0.631373 0.827451 0.301961
0.265259 0.102145 -0.086000 0.600000 0.796078 0.270588
0.265309 0.104244 -0.085000 0.600000 0.796078 0.270588
0.265359 0.106338 -0.084000 0.537255 0.737255 0.227451
0.265309 0.108268 -0.085000 0.478431 0.686275 0.188235
0.265259 0.110205 -0.086000 0.607843 0.819608 0.333333
0.265259 0.112220 -0.086000 0.627451 0.823529 0.368627
0.265210 0.114164 -0.087000 0.631373 0.827451 0.333333
0.265259 0.116250 -0.086000 0.549020 0.749020 0.247059
0.265160 0.118134 -0.088000 0.509804 0.709804 0.200000
0.265210 0.120217 -0.087000 0.501961 0.709804 0.207843
0.265160 0.122175 -0.088000 0.549020 0.768627 0.286275
0.265210 0.124253 -0.087000 0.368627 0.592157 0.129412
0.265160 0.126216 -0.088000 0.388235 0.607843 0.160784
0.265210 0.128288 -0.087000 0.349020 0.564706 0.101961
0.265160 0.130257 -0.088000 0.639216 0.850980 0.368627
0.265160 0.132277 -0.088000 0.568627 0.772549 0.290196
0.265110 0.134255 -0.089000 0.545098 0.752941 0.254902
0.265160 0.136318 -0.088000 0.470588 0.674510 0.188235
0.265210 0.138377 -0.087000 0.623529 0.835294 0.392157
0.265210 0.140394 -0.087000 0.309804 0.521569 0.074510
0.265160 0.142380 -0.088000 0.317647 0.525490 0.066667
0.265060 0.144341 -0.090000 0.309804 0.513725 0.066667
0.264961 0.146313 -0.092000 0.662745 0.870588 0.407843
0.264861 0.148296 -0.094000 0.635294 0.823529 0.376471
0.264712 0.150269 -0.097000 0.721569 0.874510 0.533333
0.262825 0.083118 -0.094000 0.109804 0.172549 0.137255
0.263192 0.085916 -0.087000 0.117647 0.219608 0.090196
0.263349 0.088252 -0.084000 0.631373 0.815686 0.329412
0.263349 0.090262 -0.084000 0.588235 0.784314 0.258824
0.263297 0.092170 -0.085000 0.490196 0.682353 0.172549
0.263244 0.094085 -0.086000 0.525490 0.725490 0.215686
0.263192 0.096005 -0.087000 0.556863 0.756863 0.247059
0.263244 0.098115 -0.086000 0.580392 0.780392 0.270588
0.263192 0.100040 -0.087000 0.588235 0.788235 0.278431
0.263244 0.102145 -0.086000 0.556863 0.760784 0.243137
0.263297 0.104244 -0.085000 0.513725 0.713725 0.203922
0.263349 0.106338 -0.084000 0.478431 0.686275 0.188235
0.263349 0.108347 -0.084000 0.647059 0.858824 0.376471
0.263192 0.110129 -0.087000 0.345098 0.564706 0.090196
0.263139 0.112073 -0.088000 0.364706 0.576471 0.094118
0.263139 0.114093 -0.088000 0.474510 0.686275 0.203922
0.263192 0.116182 -0.087000 0.615686 0.819608 0.333333
0.263087 0.118069 -0.089000 0.533333 0.741176 0.239216
0.263139 0.120155 -0.088000 0.505882 0.713725 0.211765
0.263139 0.122175 -0.088000 0.521569 0.741176 0.258824
0.263192 0.124253 -0.087000 0.325490 0.545098 0.070588
0.263139 0.126216 -0.088000 0.305882 0.529412 0.070588
0.263192 0.128288 -0.087000 0.356863 0.564706 0.137255
0.263139 0.130257 -0.088000 0.556863 0.752941 0.305882
0.263139 0.132277 -0.088000 0.592157 0.803922 0.286275
0.263034 0.134211 -0.090000 0.588235 0.792157 0.274510
0.263139 0.136318 -0.088000 0.584314 0.780392 0.262745
0.263139 0.138339 -0.088000 0.533333 0.749020 0.207843
0.263087 0.140324 -0.089000 0.611765 0.819608 0.321569
0.263034 0.142315 -0.090000 0.568627 0.768627 0.298039
0.262982 0.144311 -0.091000 0.623529 0.831373 0.333333
0.262877 0.146286 -0.093000 0.639216 0.858824 0.345098
0.262772 0.148272 -0.095000 0.631373 0.831373 0.360784
0.262562 0.150226 -0.099000 0.713725 0.874510 0.505882
0.260732 0.083006 -0.095000 0.129412 0.184314 0.141176
0.261119 0.085807 -0.088000 0.047059 0.141176 0.047059
0.261285 0.088146 -0.085000 0.607843 0.780392 0.356863
0.261229 0.090055 -0.086000 0.482353 0.678431 0.192157
0.261229 0.092070 -0.086000 0.615686 0.827451 0.345098
0.261229 0.094085 -0.086000 0.486275 0.694118 0.223529
0.261174 0.096005 -0.087000 0.384314 0.603922 0.129412
0.261174 0.098022 -0.087000 0.611765 0.823529 0.341176
0.261174 0.100040 -0.087000 0.580392 0.792157 0.305882
0.261229 0.102145 -0.086000 0.525490 0.733333 0.231373
0.261285 0.104244 -0.085000 0.513725 0.713725 0.211765
0.261340 0.106338 -0.084000 0.556863 0.760784 0.274510
0.261285 0.108268 -0.085000 0.654902 0.866667 0.384314
0.261174 0.110129 -0.087000 0.392157 0.615686 0.156863
0.261174 0.112146 -0.087000 0.411765 0.627451 0.168627
0.261174 0.114164 -0.087000 0.309804 0.521569 0.039216
0.261174 0.116182 -0.087000 0.670588 0.874510 0.392157
0.261174 0.118199 -0.087000 0.588235 0.792157 0.274510
0.261174 0.120217 -0.087000 0.576471 0.780392 0.262745
0.261119 0.122175 -0.088000 0.509804 0.725490 0.196078
0.261174 0.124253 -0.087000 0.627451 0.835294 0.333333
0.261064 0.126162 -0.089000 0.278431 0.486275 0.054902
0.261119 0.128237 -0.088000 0.282353 0.490196 0.027451
0.261008 0.130160 -0.090000 0.647059 0.850980 0.364706
0.261064 0.132231 -0.089000 0.619608 0.823529 0.298039
0.260953 0.134168 -0.091000 0.615686 0.823529 0.282353
0.261008 0.136237 -0.090000 0.619608 0.827451 0.286275
0.261008 0.138263 -0.090000 0.603922 0.819608 0.282353
0.260953 0.140254 -0.091000 0.607843 0.823529 0.286275
0.260898 0.142250 -0.092000 0.631373 0.839216 0.337255
0.260843 0.144252 -0.093000 0.650980 0.854902 0.372549
0.260788 0.146259 -0.094000 0.690196 0.890196 0.419608
0.260567 0.148199 -0.098000 0.705882 0.894118 0.470588
0.258983 0.085590 -0.090000 0.070588 0.160784 0.082353
0.259156 0.087934 -0.087000 0.580392 0.745098 0.356863
0.259156 0.089952 -0.087000 0.478431 0.666667 0.211765
0.259272 0.092170 -0.085000 0.596078 0.807843 0.360784
0.259272 0.094183 -0.085000 0.411765 0.627451 0.168627
0.259214 0.096100 -0.086000 0.415686 0.631373 0.172549
0.259214 0.098115 -0.086000 0.356863 0.564706 0.094118
0.259214 0.100130 -0.086000 0.670588 0.882353 0.400000
0.259272 0.102232 -0.085000 0.564706 0.772549 0.270588
0.259330 0.104328 -0.084000 0.545098 0.745098 0.243137
0.259330 0.106338 -0.084000 0.501961 0.705882 0.219608
0.259330 0.108347 -0.084000 0.588235 0.796078 0.325490
0.259214 0.110205 -0.086000 0.262745 0.478431 0.015686
0.259214 0.112220 -0.086000 0.278431 0.478431 0.050980
0.259272 0.114305 -0.085000 0.580392 0.784314 0.301961
0.259156 0.116182 -0.087000 0.631373 0.835294 0.349020
0.259098 0.118134 -0.088000 0.611765 0.815686 0.290196
0.259041 0.120092 -0.089000 0.611765 0.815686 0.290196
0.258983 0.122056 -0.090000 0.600000 0.815686 0.286275
0.259041 0.124139 -0.089000 0.588235 0.803922 0.274510
0.258925 0.126054 -0.091000 0.615686 0.831373 0.333333
0.258925 0.128082 -0.091000 0.627451 0.839216 0.352941
0.258809 0.130013 -0.093000 0.615686 0.827451 0.341176
0.258867 0.132093 -0.092000 0.631373 0.835294 0.349020
0.258809 0.134082 -0.093000 0.674510 0.866667 0.396078
0.258867 0.136156 -0.092000 0.709804 0.862745 0.533333
0.258809 0.138150 -0.093000 0.725490 0.870588 0.576471
0.258635 0.140079 -0.096000 0.678431 0.807843 0.576471
0.258577 0.142089 -0.097000 0.313725 0.427451 0.243137
0.258577 0.144134 -0.097000 0.074510 0.176471 0.043137
0.258519 0.146152 -0.098000 0.070588 0.164706 0.070588
0.256835 0.085372 -0.092000 0.090196 0.168627 0.098039
0.257139 0.087934 -0.087000 0.611765 0.756863 0.431373
0.257199 0.090055 -0.086000 0.501961 0.682353 0.258824
0.257321 0.092271 -0.084000 0.584314 0.788235 0.341176
0.257321 0.094281 -0.084000 0.333333 0.541176 0.082353
0.257260 0.096195 -0.085000 0.372549 0.576471 0.133333
0.257199 0.098115 -0.086000 0.337255 0.537255 0.066667
0.257199 0.100130 -0.086000 0.658824 0.858824 0.356863
0.257260 0.102232 -0.085000 0.615686 0.811765 0.294118
0.257321 0.104328 -0.084000 0.600000 0.796078 0.270588
0.257381 0.106419 -0.083000 0.572549 0.776471 0.250980
0.257321 0.108347 -0.084000 0.600000 0.807843 0.305882
0.257199 0.110205 -0.086000 0.619608 0.831373 0.349020
0.257199 0.112220 -0.086000 0.643137 0.847059 0.364706
0.257199 0.114235 -0.086000 0.631373 0.839216 0.341176
0.257017 0.116046 -0.089000 0.631373 0.839216 0.337255
0.257017 0.118069 -0.089000 0.670588 0.862745 0.400000
0.256896 0.119968 -0.091000 0.682353 0.866667 0.427451
0.256896 0.121996 -0.091000 0.658824 0.866667 0.364706
0.256835 0.123968 -0.092000 0.690196 0.890196 0.388235
0.256714 0.125891 -0.094000 0.701961 0.898039 0.411765
0.256714 0.127928 -0.094000 0.686275 0.886275 0.415686
0.256653 0.129916 -0.095000 0.690196 0.858824 0.490196
0.256593 0.131909 -0.096000 0.368627 0.509804 0.231373
0.256593 0.133952 -0.096000 0.082353 0.219608 0.000000
0.256653 0.136035 -0.095000 0.086275 0.196078 0.031373
0.256653 0.138074 -0.095000 0.105882 0.207843 0.078431
0.256471 0.140008 -0.098000 0.117647 0.207843 0.129412
0.256411 0.142024 -0.099000 0.125490 0.211765 0.141176
0.254867 0.085481 -0.091000 0.113725 0.192157 0.129412
0.255121 0.087934 -0.087000 0.545098 0.690196 0.372549
0.255311 0.090262 -0.084000 0.564706 0.741176 0.301961
0.255375 0.092372 -0.083000 0.639216 0.843137 0.360784
0.255311 0.094281 -0.084000 0.517647 0.717647 0.247059
0.255184 0.096100 -0.086000 0.349020 0.552941 0.070588
0.255184 0.098115 -0.086000 0.662745 0.866667 0.384314
0.255184 0.100130 -0.086000 0.635294 0.843137 0.301961
0.255184 0.102145 -0.086000 0.631373 0.843137 0.286275
0.255248 0.104244 -0.085000 0.627451 0.831373 0.305882
0.255248 0.106256 -0.085000 0.650980 0.850980 0.341176
0.255248 0.108268 -0.085000 0.654902 0.858824 0.376471
0.255121 0.110129 -0.087000 0.666667 0.870588 0.384314
0.254931 0.111926 -0.090000 0.682353 0.874510 0.411765
0.254931 0.113952 -0.090000 0.717647 0.890196 0.513725
0.254804 0.115843 -0.092000 0.698039 0.870588 0.494118
0.254741 0.117809 -0.093000 0.372549 0.513725 0.227451
0.254614 0.119718 -0.095000 0.627451 0.752941 0.533333
0.254487 0.121638 -0.097000 0.329412 0.447059 0.262745
0.254424 0.123626 -0.098000 0.070588 0.168627 0.050980
0.254424 0.125674 -0.098000 0.062745 0.152941 0.066667
0.254487 0.127773 -0.097000 0.086275 0.176471 0.098039
0.254424 0.129770 -0.098000 0.129412 0.215686 0.145098
0.252773 0.085372 -0.092000 0.117647 0.184314 0.137255
0.253103 0.087934 -0.087000 0.243137 0.372549 0.125490
0.253302 0.090262 -0.084000 0.643137 0.811765 0.407843
0.253302 0.092271 -0.084000 0.588235 0.800000 0.286275
0.253235 0.094183 -0.085000 0.607843 0.815686 0.313725
0.253037 0.095910 -0.088000 0.631373 0.831373 0.360784
0.253037 0.097930 -0.088000 0.647059 0.847059 0.384314
0.253037 0.099950 -0.088000 0.674510 0.870588 0.423529
0.252971 0.101884 -0.089000 0.694118 0.854902 0.521569
0.252971 0.103907 -0.089000 0.725490 0.870588 0.568627
0.252905 0.105849 -0.090000 0.658824 0.788235 0.556863
0.252839 0.107796 -0.091000 0.274510 0.388235 0.200000
0.252707 0.109672 -0.093000 0.070588 0.168627 0.058824
0.250879 0.087616 -0.090000 0.086275 0.168627 0.090196
0.251086 0.089952 -0.087000 0.745098 0.898039 0.541176
0.251086 0.091969 -0.087000 0.725490 0.901961 0.462745
0.251086 0.093987 -0.087000 0.733333 0.901961 0.501961
0.250948 0.095814 -0.089000 0.666667 0.819608 0.490196
0.250810 0.097653 -0.091000 0.282353 0.419608 0.156863
0.250672 0.099502 -0.093000 0.070588 0.200000 0.000000
0.250535 0.101362 -0.095000 0.074510 0.180392 0.035294
0.250466 0.103317 -0.096000 0.098039 0.196078 0.078431
0.248710 0.089435 -0.092000 0.109804 0.188235 0.117647
0.248781 0.091567 -0.091000 0.074510 0.156863 0.078431
0.248781 0.093595 -0.091000 0.086275 0.168627 0.117647
0.248567 0.095339 -0.094000 0.109804 0.196078 0.133333
0.248424 0.097191 -0.096000 0.125490 0.200000 0.152941
0.172859 0.119656 -0.096000 0.000000 0.227451 0.352941
0.173204 0.121817 -0.094000 0.309804 0.658824 0.807843
0.172859 0.123740 -0.096000 0.101961 0.462745 0.623529
0.172514 0.125674 -0.098000 0.000000 0.262745 0.407843
0.171996 0.127568 -0.101000 0.000000 0.282353 0.419608
0.170291 0.117418 -0.099000 0.145098 0.266667 0.294118
0.171343 0.119843 -0.093000 0.000000 0.360784 0.529412
0.171693 0.121996 -0.091000 0.129412 0.623529 0.827451
0.171518 0.123968 -0.092000 0.078431 0.619608 0.835294
0.171343 0.125945 -0.093000 0.105882 0.635294 0.850980
0.170992 0.127876 -0.095000 0.133333 0.631373 0.835294
0.170992 0.129916 -0.095000 0.078431 0.568627 0.756863
0.170641 0.131863 -0.097000 0.000000 0.250980 0.411765
0.170466 0.133865 -0.098000 0.078431 0.333333 0.458824
0.169765 0.135751 -0.102000 0.125490 0.349020 0.462745
0.167884 0.115232 -0.101000 0.050980 0.125490 0.129412
0.168774 0.117613 -0.096000 0.133333 0.286275 0.337255
0.169487 0.119905 -0.092000 0.180392 0.615686 0.800000
0.169843 0.122056 -0.090000 0.003922 0.505882 0.725490
0.169843 0.124082 -0.090000 0.000000 0.435294 0.654902
0.169665 0.126054 -0.091000 0.000000 0.454902 0.666667
0.169309 0.127979 -0.093000 0.000000 0.498039 0.698039
0.169309 0.130013 -0.093000 0.070588 0.607843 0.823529
0.169131 0.132001 -0.094000 0.113725 0.643137 0.819608
0.168774 0.133952 -0.096000 0.000000 0.486275 0.682353
0.168240 0.135872 -0.099000 0.000000 0.298039 0.474510
0.167884 0.137847 -0.101000 0.000000 0.262745 0.411765
0.166190 0.115368 -0.099000 0.062745 0.203922 0.235294
0.166913 0.117679 -0.095000 0.000000 0.211765 0.301961
0.167275 0.119843 -0.093000 0.117647 0.568627 0.772549
0.167455 0.121937 -0.092000 0.000000 0.431373 0.654902
0.167455 0.123968 -0.092000 0.125490 0.600000 0.819608
0.167275 0.125945 -0.093000 0.117647 0.607843 0.827451
0.167275 0.127979 -0.093000 0.054902 0.576471 0.792157
0.167275 0.130013 -0.093000 0.031373 0.584314 0.796078
0.167275 0.132047 -0.093000 0.031373 0.607843 0.819608
0.167275 0.134082 -0.093000 0.035294 0.619608 0.831373
0.167094 0.136075 -0.094000 0.078431 0.647059 0.854902
0.166913 0.138074 -0.095000 0.117647 0.647059 0.831373
0.166913 0.140114 -0.095000 0.180392 0.584314 0.764706
0.166732 0.142121 -0.096000 0.000000 0.247059 0.411765
0.166551 0.144134 -0.097000 0.007843 0.262745 0.403922
0.165828 0.146071 -0.101000 0.070588 0.305882 0.435294
0.164506 0.115503 -0.097000 0.141176 0.301961 0.356863
0.164873 0.117679 -0.095000 0.105882 0.356863 0.490196
0.165240 0.119843 -0.093000 0.066667 0.529412 0.729412
0.165424 0.121937 -0.092000 0.137255 0.603922 0.811765
0.165424 0.123968 -0.092000 0.082353 0.549020 0.764706
0.165057 0.125891 -0.094000 0.000000 0.458824 0.678431
0.165057 0.127928 -0.094000 0.000000 0.458824 0.678431
0.164873 0.129916 -0.095000 0.101961 0.603922 0.823529
0.165240 0.132047 -0.093000 0.023529 0.592157 0.803922
0.165240 0.134082 -0.093000 0.047059 0.600000 0.811765
0.165424 0.136156 -0.092000 0.031373 0.600000 0.811765
0.165608 0.138225 -0.091000 0.043137 0.603922 0.811765
0.165608 0.140254 -0.091000 0.082353 0.615686 0.815686
0.165424 0.142250 -0.092000 0.121569 0.639216 0.835294
0.165057 0.144222 -0.094000 0.121569 0.619608 0.823529
0.164690 0.146205 -0.096000 0.070588 0.552941 0.741176
0.164506 0.148224 -0.097000 0.000000 0.262745 0.415686
0.163956 0.150204 -0.100000 0.000000 0.266667 0.407843
0.163405 0.152201 -0.103000 0.007843 0.294118 0.443137
0.161716 0.113176 -0.101000 0.058824 0.129412 0.133333
0.163020 0.115707 -0.094000 0.047059 0.254902 0.360784
0.163206 0.117809 -0.093000 0.070588 0.568627 0.756863
0.163393 0.119905 -0.092000 0.000000 0.501961 0.705882
0.163206 0.121877 -0.093000 0.133333 0.627451 0.827451
0.163206 0.123911 -0.093000 0.000000 0.458824 0.682353
0.162834 0.125837 -0.095000 0.039216 0.501961 0.725490
0.162834 0.127876 -0.095000 0.000000 0.435294 0.658824
0.162834 0.129916 -0.095000 0.133333 0.623529 0.843137
0.163206 0.132047 -0.093000 0.015686 0.556863 0.772549
0.163206 0.134082 -0.093000 0.023529 0.564706 0.780392
0.163393 0.136156 -0.092000 0.007843 0.537255 0.752941
0.163765 0.138263 -0.090000 0.000000 0.454902 0.670588
0.163579 0.140254 -0.091000 0.000000 0.447059 0.666667
0.163393 0.142250 -0.092000 0.000000 0.486275 0.698039
0.163020 0.144222 -0.094000 0.007843 0.560784 0.760784
0.162834 0.146232 -0.095000 0.039216 0.600000 0.811765
0.162834 0.148272 -0.095000 0.090196 0.643137 0.850980
0.162834 0.150311 -0.095000 0.098039 0.639216 0.839216
0.162648 0.152332 -0.096000 0.117647 0.509804 0.678431
0.162275 0.154343 -0.098000 0.000000 0.270588 0.431373
0.161716 0.156351 -0.101000 0.000000 0.270588 0.419608
0.159849 0.113247 -0.100000 0.050980 0.141176 0.149020
0.160983 0.115707 -0.094000 0.105882 0.380392 0.505882
0.161172 0.117809 -0.093000 0.058824 0.584314 0.780392
0.161550 0.119968 -0.091000 0.000000 0.529412 0.737255
0.161172 0.121877 -0.093000 0.050980 0.592157 0.800000
0.161172 0.123911 -0.093000 0.000000 0.372549 0.596078
0.160983 0.125891 -0.094000 0.000000 0.349020 0.576471
0.160983 0.127928 -0.094000 0.000000 0.341176 0.564706
0.160983 0.129965 -0.094000 0.109804 0.623529 0.839216
0.160983 0.132001 -0.094000 0.031373 0.552941 0.768627
0.161172 0.134082 -0.093000 0.015686 0.529412 0.745098
0.161172 0.136116 -0.093000 0.000000 0.458824 0.678431
0.161361 0.138188 -0.092000 0.137255 0.619608 0.839216
0.161361 0.140219 -0.092000 0.074510 0.549020 0.764706
0.161172 0.142218 -0.093000 0.074510 0.556863 0.776471
0.160794 0.144193 -0.095000 0.074510 0.603922 0.819608
0.160605 0.146205 -0.096000 0.035294 0.596078 0.807843
0.160983 0.148296 -0.094000 0.011765 0.603922 0.815686
0.160983 0.150333 -0.094000 0.023529 0.615686 0.827451
0.161361 0.152407 -0.092000 0.054902 0.623529 0.835294
0.160983 0.154407 -0.094000 0.101961 0.654902 0.854902
0.160794 0.156430 -0.095000 0.125490 0.643137 0.843137
0.160416 0.158449 -0.097000 0.149020 0.647059 0.835294
0.160038 0.160478 -0.099000 0.000000 0.309804 0.490196
0.159660 0.162518 -0.101000 0.000000 0.262745 0.427451
0.158371 0.113458 -0.097000 0.149020 0.282353 0.309804
0.159138 0.115775 -0.093000 0.266667 0.639216 0.784314
0.159330 0.117874 -0.092000 0.047059 0.600000 0.800000
0.159522 0.119968 -0.091000 0.027451 0.600000 0.796078
0.159330 0.121937 -0.092000 0.023529 0.584314 0.796078
0.159330 0.123968 -0.092000 0.050980 0.603922 0.815686
0.158946 0.125891 -0.094000 0.058824 0.588235 0.803922
0.159138 0.127979 -0.093000 0.066667 0.619608 0.831373
0.159138 0.130013 -0.093000 0.031373 0.592157 0.803922
0.159330 0.132093 -0.092000 0.000000 0.529412 0.745098
0.159138 0.134082 -0.093000 0.015686 0.529412 0.745098
0.159138 0.136116 -0.093000 0.000000 0.482353 0.701961
0.158946 0.138112 -0.094000 0.133333 0.607843 0.827451
0.158946 0.140149 -0.094000 0.019608 0.478431 0.694118
0.158755 0.142153 -0.095000 0.015686 0.478431 0.701961
0.158755 0.144193 -0.095000 0.000000 0.486275 0.705882
0.158563 0.146205 -0.096000 0.058824 0.588235 0.803922
0.158755 0.148272 -0.095000 0.019608 0.572549 0.784314
0.158563 0.150290 -0.096000 0.035294 0.576471 0.792157
0.158946 0.152370 -0.094000 0.000000 0.545098 0.756863
0.158946 0.154407 -0.094000 0.000000 0.494118 0.705882
0.159138 0.156457 -0.093000 0.000000 0.494118 0.694118
0.159138 0.158491 -0.093000 0.043137 0.564706 0.780392
0.158946 0.160517 -0.094000 0.070588 0.611765 0.819608
0.158755 0.162549 -0.095000 0.125490 0.639216 0.815686
0.157988 0.164579 -0.099000 0.219608 0.666667 0.835294
0.157604 0.166630 -0.101000 0.000000 0.321569 0.470588
0.157221 0.168693 -0.103000 0.000000 0.262745 0.411765
0.157029 0.170760 -0.104000 0.047059 0.266667 0.396078
0.156521 0.113529 -0.096000 0.113725 0.274510 0.329412
0.157104 0.115775 -0.093000 0.164706 0.639216 0.815686
0.157104 0.117809 -0.093000 0.023529 0.615686 0.827451
0.157104 0.119843 -0.093000 0.019608 0.611765 0.823529
0.157104 0.121877 -0.093000 0.027451 0.603922 0.823529
0.157104 0.123911 -0.093000 0.023529 0.600000 0.819608
0.157104 0.125945 -0.093000 0.023529 0.607843 0.827451
0.157104 0.127979 -0.093000 0.031373 0.615686 0.827451
0.156910 0.129965 -0.094000 0.031373 0.607843 0.819608
0.156910 0.132001 -0.094000 0.019608 0.580392 0.792157
0.156910 0.134038 -0.094000 0.000000 0.541176 0.752941
0.157104 0.136116 -0.093000 0.011765 0.525490 0.741176
0.156910 0.138112 -0.094000 0.015686 0.509804 0.729412
0.157104 0.140184 -0.093000 0.000000 0.352941 0.580392
0.157104 0.142218 -0.093000 0.000000 0.368627 0.596078
0.156910 0.144222 -0.094000 0.000000 0.419608 0.643137
0.156521 0.146205 -0.096000 0.078431 0.592157 0.807843
0.156521 0.148248 -0.096000 0.035294 0.549020 0.764706
0.156521 0.150290 -0.096000 0.031373 0.533333 0.752941
0.156910 0.152370 -0.094000 0.000000 0.443137 0.662745
0.156715 0.154391 -0.095000 0.121569 0.611765 0.831373
0.156910 0.156443 -0.094000 0.121569 0.615686 0.835294
0.156910 0.158480 -0.094000 0.074510 0.576471 0.796078
0.156910 0.160517 -0.094000 0.023529 0.592157 0.803922
0.156715 0.162549 -0.095000 0.027451 0.611765 0.823529
0.156715 0.164588 -0.095000 0.035294 0.623529 0.819608
0.156521 0.166628 -0.096000 0.062745 0.643137 0.835294
0.156521 0.168671 -0.096000 0.098039 0.650980 0.858824
0.156132 0.170725 -0.098000 0.023529 0.333333 0.478431
0.155937 0.172781 -0.099000 0.000000 0.258824 0.396078
0.154965 0.174888 -0.104000 0.050980 0.286275 0.419608
0.153887 0.111267 -0.099000 0.035294 0.149020 0.168627
0.154873 0.113670 -0.094000 0.000000 0.278431 0.423529
0.155267 0.115843 -0.092000 0.113725 0.623529 0.811765
0.155464 0.117939 -0.091000 0.039216 0.619608 0.823529
0.155267 0.119905 -0.092000 0.000000 0.592157 0.803922
0.155267 0.121937 -0.092000 0.003922 0.596078 0.815686
0.155267 0.123968 -0.092000 0.035294 0.611765 0.831373
0.155267 0.125999 -0.092000 0.035294 0.627451 0.847059
0.154873 0.127928 -0.094000 0.027451 0.623529 0.843137
0.154873 0.129965 -0.094000 0.035294 0.627451 0.839216
0.154873 0.132001 -0.094000 0.015686 0.607843 0.819608
0.154873 0.134038 -0.094000 0.019608 0.596078 0.807843
0.154873 0.136075 -0.094000 0.019608 0.572549 0.784314
0.154873 0.138112 -0.094000 0.066667 0.627451 0.839216
0.155070 0.140184 -0.093000 0.000000 0.403922 0.631373
0.155070 0.142218 -0.093000 0.000000 0.364706 0.592157
0.154873 0.144222 -0.094000 0.082353 0.623529 0.839216
0.154676 0.146232 -0.095000 0.007843 0.549020 0.764706
0.154676 0.148272 -0.095000 0.015686 0.517647 0.737255
0.154478 0.150290 -0.096000 0.000000 0.482353 0.701961
0.154676 0.152351 -0.095000 0.152941 0.627451 0.847059
0.154676 0.154391 -0.095000 0.000000 0.435294 0.658824
0.154676 0.156430 -0.095000 0.000000 0.443137 0.662745
0.154676 0.158470 -0.095000 0.000000 0.431373 0.650980
0.154676 0.160509 -0.095000 0.039216 0.600000 0.811765
0.154676 0.162549 -0.095000 0.015686 0.592157 0.803922
0.154676 0.164588 -0.095000 0.007843 0.592157 0.803922
0.154873 0.166627 -0.094000 0.019608 0.600000 0.803922
0.155070 0.168661 -0.093000 0.078431 0.627451 0.819608
0.154676 0.170707 -0.095000 0.121569 0.647059 0.843137
0.154281 0.172764 -0.097000 0.133333 0.639216 0.850980
0.153887 0.174831 -0.099000 0.141176 0.639216 0.827451
0.153493 0.176910 -0.101000 0.000000 0.345098 0.509804
0.153098 0.179000 -0.103000 0.000000 0.266667 0.388235
0.152236 0.111413 -0.097000 0.145098 0.309804 0.380392
0.153036 0.113741 -0.093000 0.188235 0.607843 0.780392
0.153236 0.115843 -0.092000 0.039216 0.525490 0.725490
0.153236 0.117874 -0.092000 0.000000 0.419608 0.635294
0.153036 0.119843 -0.093000 0.000000 0.443137 0.662745
0.153036 0.121877 -0.093000 0.000000 0.505882 0.721569
0.153236 0.123968 -0.092000 0.023529 0.572549 0.796078
0.153036 0.125945 -0.093000 0.031373 0.615686 0.835294
0.152636 0.127876 -0.095000 0.031373 0.627451 0.847059
0.152636 0.129916 -0.095000 0.027451 0.623529 0.843137
0.152636 0.131955 -0.095000 0.023529 0.619608 0.839216
0.153036 0.134082 -0.093000 0.023529 0.615686 0.835294
0.153036 0.136116 -0.093000 0.011765 0.603922 0.823529
0.153036 0.138150 -0.093000 0.007843 0.592157 0.811765
0.153036 0.140184 -0.093000 0.027451 0.603922 0.823529
0.152836 0.142186 -0.094000 0.019608 0.603922 0.823529
0.153036 0.144252 -0.093000 0.011765 0.588235 0.800000
0.152836 0.146259 -0.094000 0.007843 0.568627 0.780392
0.152836 0.148296 -0.094000 0.007843 0.537255 0.752941
0.152636 0.150311 -0.095000 0.000000 0.513725 0.729412
0.152636 0.152351 -0.095000 0.219608 0.674510 0.898039
0.152636 0.154391 -0.095000 0.000000 0.415686 0.643137
0.152636 0.156430 -0.095000 0.054902 0.454902 0.682353
0.152436 0.158459 -0.096000 0.000000 0.356863 0.584314
0.152636 0.160509 -0.095000 0.117647 0.631373 0.847059
0.152636 0.162549 -0.095000 0.023529 0.552941 0.768627
0.152636 0.164588 -0.095000 0.023529 0.560784 0.776471
0.152636 0.166628 -0.095000 0.000000 0.529412 0.745098
0.152636 0.168667 -0.095000 0.000000 0.427451 0.639216
0.152636 0.170707 -0.095000 0.000000 0.427451 0.643137
0.152436 0.172755 -0.096000 0.000000 0.462745 0.666667
0.152236 0.174809 -0.097000 0.043137 0.572549 0.788235
0.152036 0.176868 -0.098000 0.074510 0.611765 0.827451
0.152036 0.178916 -0.098000 0.227451 0.694118 0.870588
0.151237 0.181041 -0.102000 0.062745 0.305882 0.376471
0.150799 0.111633 -0.094000 0.058824 0.250980 0.329412
0.151204 0.113811 -0.092000 0.117647 0.560784 0.745098
0.151204 0.115843 -0.092000 0.000000 0.431373 0.639216
0.151204 0.117874 -0.092000 0.117647 0.600000 0.815686
0.151407 0.119968 -0.091000 0.043137 0.537255 0.756863
0.151407 0.121996 -0.091000 0.043137 0.556863 0.772549
0.151407 0.124025 -0.091000 0.062745 0.600000 0.815686
0.151204 0.125999 -0.092000 0.011765 0.603922 0.823529
0.150799 0.127928 -0.094000 0.019608 0.615686 0.835294
0.150799 0.129965 -0.094000 0.023529 0.615686 0.835294
0.151002 0.132047 -0.093000 0.027451 0.623529 0.843137
0.151002 0.134082 -0.093000 0.023529 0.619608 0.839216
0.151002 0.136116 -0.093000 0.031373 0.615686 0.835294
0.150799 0.138112 -0.094000 0.039216 0.603922 0.827451
0.150799 0.140149 -0.094000 0.039216 0.615686 0.835294
0.150597 0.142153 -0.095000 0.043137 0.619608 0.839216
0.150799 0.144222 -0.094000 0.074510 0.643137 0.854902
0.150799 0.146259 -0.094000 0.070588 0.631373 0.843137
0.150799 0.148296 -0.094000 0.035294 0.576471 0.792157
0.150394 0.150290 -0.096000 0.000000 0.525490 0.741176
0.150191 0.152314 -0.097000 0.133333 0.635294 0.854902
0.150394 0.154375 -0.096000 0.000000 0.337255 0.560784
0.150597 0.156430 -0.095000 0.000000 0.333333 0.560784
0.150799 0.158480 -0.094000 0.023529 0.431373 0.658824
0.150597 0.160509 -0.095000 0.090196 0.611765 0.827451
0.150394 0.162544 -0.096000 0.015686 0.545098 0.760784
0.150191 0.164584 -0.097000 0.023529 0.525490 0.745098
0.150191 0.166629 -0.097000 0.000000 0.462745 0.682353
0.150394 0.168671 -0.096000 0.129412 0.611765 0.831373
0.150597 0.170707 -0.095000 0.129412 0.611765 0.831373
0.150394 0.172755 -0.096000 0.109804 0.600000 0.819608
0.150394 0.174797 -0.096000 0.058824 0.588235 0.800000
0.150394 0.176840 -0.096000 0.043137 0.596078 0.807843
0.150394 0.178882 -0.096000 0.215686 0.670588 0.862745
0.149381 0.181022 -0.101000 0.000000 0.207843 0.329412
0.147736 0.109216 -0.099000 0.168627 0.258824 0.266667
0.149173 0.111780 -0.092000 0.094118 0.380392 0.501961
0.149378 0.113882 -0.091000 0.058824 0.549020 0.737255
0.149584 0.115978 -0.090000 0.015686 0.513725 0.701961
0.149173 0.117874 -0.092000 0.031373 0.498039 0.713725
0.149378 0.119968 -0.091000 0.031373 0.498039 0.713725
0.149173 0.121937 -0.092000 0.019608 0.474510 0.698039
0.149173 0.123968 -0.092000 0.125490 0.580392 0.803922
0.148968 0.125945 -0.093000 0.027451 0.580392 0.792157
0.148968 0.127979 -0.093000 0.035294 0.588235 0.800000
0.148762 0.129965 -0.094000 0.031373 0.584314 0.796078
0.148968 0.132047 -0.093000 0.000000 0.533333 0.749020
0.148968 0.134082 -0.093000 0.000000 0.450980 0.670588
0.148762 0.136075 -0.094000 0.000000 0.466667 0.694118
0.148762 0.138112 -0.094000 0.000000 0.545098 0.768627
0.148557 0.140114 -0.095000 0.027451 0.592157 0.815686
0.148557 0.142153 -0.095000 0.039216 0.615686 0.835294
