0.394218 0.152519 -0.086000 0.200000 0.564706 0.776471
0.394468 0.154502 -0.088000 0.000000 0.364706 0.572549
0.394468 0.156523 -0.088000 0.000000 0.364706 0.580392
0.394468 0.158543 -0.088000 0.000000 0.341176 0.568627
0.394093 0.160587 -0.085000 0.101961 0.560784 0.768627
0.394093 0.162599 -0.085000 0.000000 0.458824 0.666667
0.394218 0.164609 -0.086000 0.000000 0.392157 0.603922
0.394218 0.166624 -0.086000 0.000000 0.349020 0.560784
0.394218 0.168639 -0.086000 0.176471 0.580392 0.788235
0.394218 0.170654 -0.086000 0.000000 0.380392 0.584314
0.394093 0.172660 -0.085000 0.000000 0.376471 0.588235
0.393843 0.174650 -0.083000 0.000000 0.325490 0.537255
0.393718 0.176643 -0.082000 0.129412 0.580392 0.784314
0.393843 0.178664 -0.083000 0.000000 0.443137 0.647059
0.393968 0.180690 -0.084000 0.000000 0.403922 0.607843
0.393843 0.182677 -0.083000 0.000000 0.329412 0.537255
0.393843 0.184684 -0.083000 0.196078 0.580392 0.780392
0.393843 0.186691 -0.083000 0.000000 0.384314 0.592157
0.394093 0.188758 -0.085000 0.000000 0.380392 0.588235
0.394093 0.190771 -0.085000 0.000000 0.341176 0.564706
0.394218 0.192819 -0.086000 0.094118 0.552941 0.768627
0.394468 0.194911 -0.088000 0.058824 0.533333 0.752941
0.393059 0.130013 -0.093000 0.094118 0.121569 0.129412
0.392570 0.132231 -0.089000 0.000000 0.094118 0.172549
0.392448 0.134298 -0.088000 0.129412 0.435294 0.588235
0.392448 0.136318 -0.088000 0.172549 0.545098 0.729412
0.392325 0.138377 -0.087000 0.000000 0.282353 0.470588
0.392325 0.140394 -0.087000 0.043137 0.337255 0.552941
0.392203 0.142444 -0.086000 0.000000 0.270588 0.494118
0.392203 0.144459 -0.086000 0.066667 0.486275 0.698039
0.392325 0.146447 -0.087000 0.019608 0.498039 0.701961
0.392448 0.148441 -0.088000 0.000000 0.415686 0.627451
0.392692 0.150419 -0.090000 0.000000 0.372549 0.584314
0.392570 0.152463 -0.089000 0.239216 0.603922 0.819608
0.392692 0.154470 -0.090000 0.000000 0.337255 0.552941
0.392692 0.156496 -0.090000 0.011765 0.329412 0.549020
0.392570 0.158533 -0.089000 0.000000 0.215686 0.454902
0.392203 0.160579 -0.086000 0.141176 0.576471 0.796078
0.392203 0.162594 -0.086000 0.000000 0.470588 0.686275
0.392325 0.164607 -0.087000 0.000000 0.403922 0.623529
0.392325 0.166625 -0.087000 0.000000 0.360784 0.584314
0.392448 0.168645 -0.088000 0.164706 0.576471 0.788235
0.392203 0.170654 -0.086000 0.000000 0.345098 0.560784
0.392081 0.172660 -0.085000 0.039216 0.321569 0.545098
0.392081 0.178697 -0.085000 0.007843 0.466667 0.674510
0.392203 0.180729 -0.086000 0.000000 0.400000 0.607843
0.392203 0.182744 -0.086000 0.000000 0.360784 0.576471
0.392081 0.184734 -0.085000 0.203922 0.596078 0.803922
0.392081 0.186746 -0.085000 0.000000 0.352941 0.564706
0.392325 0.188819 -0.087000 0.027451 0.352941 0.572549
0.392325 0.190837 -0.087000 0.000000 0.337255 0.564706
0.392325 0.192855 -0.087000 0.109804 0.517647 0.745098
0.392448 0.194911 -0.088000 0.086275 0.568627 0.788235
0.390427 0.132277 -0.088000 0.000000 0.098039 0.200000
0.390308 0.134341 -0.087000 0.164706 0.509804 0.674510
0.390188 0.136399 -0.086000 0.000000 0.431373 0.615686
0.390308 0.138377 -0.087000 0.070588 0.470588 0.666667
0.390188 0.140429 -0.086000 0.000000 0.172549 0.396078
0.390308 0.142412 -0.087000 0.000000 0.160784 0.396078
0.390188 0.144459 -0.086000 0.145098 0.611765 0.827451
0.390427 0.146421 -0.088000 0.027451 0.533333 0.745098
0.390427 0.148441 -0.088000 0.019608 0.486275 0.701961
0.390666 0.150419 -0.090000 0.000000 0.447059 0.662745
0.390547 0.152463 -0.089000 0.058824 0.470588 0.690196
0.390666 0.154470 -0.090000 0.000000 0.254902 0.470588
0.390547 0.156510 -0.089000 0.000000 0.172549 0.407843
0.390427 0.158543 -0.088000 0.000000 0.176471 0.415686
0.390069 0.160587 -0.085000 0.129412 0.603922 0.823529
0.390069 0.162599 -0.085000 0.023529 0.521569 0.733333
0.390188 0.164609 -0.086000 0.011765 0.466667 0.690196
0.390308 0.166625 -0.087000 0.000000 0.427451 0.650980
0.390308 0.168642 -0.087000 0.105882 0.545098 0.752941
0.390069 0.170648 -0.085000 0.000000 0.207843 0.435294
0.389949 0.172652 -0.084000 0.000000 0.160784 0.396078
0.389949 0.174661 -0.084000 0.000000 0.180392 0.415686
0.389829 0.176657 -0.083000 0.133333 0.607843 0.823529
0.389949 0.178680 -0.084000 0.011765 0.501961 0.717647
0.390069 0.180709 -0.085000 0.027451 0.478431 0.686275
0.390188 0.182744 -0.086000 0.000000 0.403922 0.623529
0.390188 0.184759 -0.086000 0.149020 0.560784 0.772549
0.390547 0.194950 -0.089000 0.090196 0.580392 0.800000
0.388640 0.132185 -0.090000 0.000000 0.082353 0.184314
0.388407 0.134298 -0.088000 0.215686 0.568627 0.729412
0.388173 0.136399 -0.086000 0.003922 0.494118 0.709804
0.388290 0.138377 -0.087000 0.031373 0.537255 0.741176
0.388173 0.140429 -0.086000 0.070588 0.584314 0.800000
0.388173 0.142444 -0.086000 0.082353 0.603922 0.819608
0.388173 0.144459 -0.086000 0.027451 0.580392 0.792157
0.388173 0.146474 -0.086000 0.007843 0.560784 0.772549
0.388407 0.148441 -0.088000 0.015686 0.537255 0.752941
0.388524 0.150440 -0.089000 0.011765 0.513725 0.733333
0.388640 0.152444 -0.090000 0.000000 0.494118 0.713725
0.388524 0.154486 -0.089000 0.047059 0.549020 0.768627
0.388407 0.156523 -0.088000 0.058824 0.588235 0.803922
0.388173 0.158564 -0.086000 0.050980 0.592157 0.807843
0.388056 0.160587 -0.085000 0.019608 0.572549 0.784314
0.388056 0.162599 -0.085000 0.011765 0.549020 0.764706
0.388173 0.164609 -0.086000 0.015686 0.517647 0.737255
0.388290 0.166625 -0.087000 0.003922 0.498039 0.717647
0.388290 0.168642 -0.087000 0.000000 0.478431 0.698039
0.388173 0.170654 -0.086000 0.062745 0.552941 0.772549
0.388056 0.172660 -0.085000 0.109804 0.584314 0.803922
0.388056 0.178697 -0.085000 0.011765 0.549020 0.764706
0.388056 0.180709 -0.085000 0.011765 0.513725 0.733333
0.388173 0.182744 -0.086000 0.007843 0.498039 0.717647
0.388056 0.184734 -0.085000 0.000000 0.482353 0.701961
0.388524 0.194950 -0.089000 0.121569 0.619608 0.831373
0.386843 0.132093 -0.092000 0.000000 0.090196 0.192157
0.386386 0.134298 -0.088000 0.223529 0.592157 0.752941
0.386272 0.136359 -0.087000 0.039216 0.549020 0.745098
0.386272 0.138377 -0.087000 0.027451 0.549020 0.760784
0.386272 0.140394 -0.087000 0.027451 0.564706 0.780392
0.386272 0.142412 -0.087000 0.011765 0.552941 0.776471
0.386386 0.144400 -0.088000 0.019608 0.568627 0.792157
0.386272 0.146447 -0.087000 0.011765 0.560784 0.784314
0.386272 0.148465 -0.087000 0.039216 0.556863 0.784314
0.386386 0.150461 -0.088000 0.035294 0.545098 0.772549
0.386386 0.152482 -0.088000 0.023529 0.545098 0.760784
0.386386 0.154502 -0.088000 0.031373 0.556863 0.784314
0.386272 0.156536 -0.087000 0.019608 0.560784 0.784314
0.386158 0.158564 -0.086000 0.019608 0.568627 0.792157
0.386044 0.160587 -0.085000 0.019608 0.568627 0.792157
0.385930 0.162604 -0.084000 0.035294 0.576471 0.800000
0.386044 0.164611 -0.085000 0.066667 0.580392 0.796078
0.386272 0.166625 -0.087000 0.035294 0.537255 0.756863
0.386272 0.168642 -0.087000 0.031373 0.552941 0.768627
0.386272 0.170660 -0.087000 0.031373 0.552941 0.768627
0.386158 0.172669 -0.086000 0.031373 0.568627 0.792157
0.386044 0.174673 -0.085000 0.027451 0.568627 0.792157
0.386044 0.176685 -0.085000 0.023529 0.572549 0.796078
0.386044 0.178697 -0.085000 0.011765 0.552941 0.776471
0.385930 0.180690 -0.084000 0.035294 0.549020 0.764706
0.385930 0.182699 -0.084000 0.039216 0.541176 0.760784
0.385816 0.184684 -0.083000 0.035294 0.537255 0.756863
0.385145 0.129916 -0.095000 0.074510 0.121569 0.117647
0.384811 0.132093 -0.092000 0.000000 0.109804 0.211765
0.384366 0.134298 -0.088000 0.172549 0.556863 0.717647
0.384366 0.136318 -0.088000 0.039216 0.525490 0.725490
0.384366 0.138339 -0.088000 0.039216 0.537255 0.741176
0.384366 0.140359 -0.088000 0.027451 0.529412 0.749020
0.384366 0.142380 -0.088000 0.039216 0.541176 0.768627
0.384366 0.144400 -0.088000 0.039216 0.541176 0.768627
0.384255 0.146447 -0.087000 0.047059 0.549020 0.776471
0.384143 0.148489 -0.086000 0.027451 0.529412 0.749020
0.384143 0.150504 -0.086000 0.023529 0.525490 0.745098
0.384255 0.152501 -0.087000 0.035294 0.529412 0.749020
0.384366 0.154502 -0.088000 0.047059 0.541176 0.768627
0.384477 0.156510 -0.089000 0.039216 0.541176 0.768627
0.384255 0.158554 -0.087000 0.050980 0.552941 0.780392
0.384255 0.160571 -0.087000 0.043137 0.545098 0.772549
0.384143 0.162594 -0.086000 0.125490 0.627451 0.854902
0.384255 0.164607 -0.087000 0.000000 0.450980 0.670588
0.384255 0.166625 -0.087000 0.039216 0.529412 0.749020
0.384143 0.168639 -0.086000 0.047059 0.529412 0.749020
0.384143 0.170654 -0.086000 0.050980 0.541176 0.768627
0.384255 0.172678 -0.087000 0.035294 0.545098 0.772549
0.384255 0.174695 -0.087000 0.050980 0.552941 0.780392
0.384255 0.176713 -0.087000 0.043137 0.552941 0.780392
0.384032 0.178697 -0.085000 0.039216 0.549020 0.776471
0.383920 0.180690 -0.084000 0.027451 0.541176 0.756863
0.383920 0.182699 -0.084000 0.047059 0.549020 0.768627
0.383920 0.184709 -0.084000 0.043137 0.545098 0.764706
0.384143 0.186774 -0.086000 0.058824 0.560784 0.788235
0.384143 0.190804 -0.086000 0.050980 0.560784 0.788235
0.383214 0.129867 -0.096000 0.078431 0.129412 0.113725
0.382671 0.132139 -0.091000 0.000000 0.129412 0.219608
0.382454 0.134255 -0.089000 0.137255 0.505882 0.666667
0.382454 0.136278 -0.089000 0.011765 0.454902 0.639216
0.382454 0.138301 -0.089000 0.000000 0.400000 0.603922
0.382454 0.140324 -0.089000 0.000000 0.423529 0.647059
0.382345 0.142380 -0.088000 0.000000 0.474510 0.694118
0.382237 0.144430 -0.087000 0.019608 0.509804 0.729412
0.382237 0.146447 -0.087000 0.015686 0.505882 0.725490
0.382128 0.148489 -0.086000 0.003922 0.486275 0.705882
0.382128 0.150504 -0.086000 0.023529 0.486275 0.709804
0.382020 0.152538 -0.085000 0.003922 0.458824 0.682353
0.382020 0.154550 -0.085000 0.000000 0.403922 0.627451
0.382237 0.156536 -0.087000 0.000000 0.447059 0.666667
0.382345 0.158543 -0.088000 0.000000 0.482353 0.701961
0.382345 0.160564 -0.088000 0.015686 0.505882 0.725490
0.382237 0.162589 -0.087000 0.039216 0.521569 0.741176
0.382128 0.164609 -0.086000 0.007843 0.470588 0.694118
0.382020 0.166624 -0.085000 0.019608 0.474510 0.698039
0.381911 0.168633 -0.084000 0.000000 0.443137 0.666667
0.381911 0.170642 -0.084000 0.000000 0.419608 0.643137
0.382128 0.172669 -0.086000 0.000000 0.450980 0.670588
0.382454 0.174718 -0.089000 0.003922 0.498039 0.725490
0.382345 0.176727 -0.088000 0.019608 0.521569 0.749020
0.382128 0.178714 -0.086000 0.003922 0.505882 0.725490
0.381911 0.180690 -0.084000 0.023529 0.517647 0.737255
0.381911 0.182699 -0.084000 0.019608 0.509804 0.729412
0.381911 0.184709 -0.084000 0.027451 0.490196 0.713725
0.382237 0.186802 -0.087000 0.011765 0.474510 0.698039
0.382128 0.188789 -0.086000 0.019608 0.498039 0.729412
0.382128 0.190804 -0.086000 0.031373 0.521569 0.741176
0.381066 0.129916 -0.095000 0.078431 0.117647 0.105882
0.380749 0.132093 -0.092000 0.000000 0.156863 0.258824
0.380537 0.134211 -0.090000 0.117647 0.443137 0.592157
0.380537 0.136237 -0.090000 0.000000 0.333333 0.517647
0.380537 0.138263 -0.090000 0.192157 0.576471 0.776471
0.380431 0.140324 -0.089000 0.082353 0.494118 0.713725
0.380325 0.142380 -0.088000 0.121569 0.537255 0.764706
0.380219 0.144430 -0.087000 0.031373 0.513725 0.729412
0.380219 0.146447 -0.087000 0.023529 0.490196 0.705882
0.380219 0.148465 -0.087000 0.011765 0.439216 0.658824
0.380113 0.150504 -0.086000 0.000000 0.411765 0.631373
0.380007 0.152538 -0.085000 0.000000 0.329412 0.541176
0.379901 0.154566 -0.084000 0.192157 0.592157 0.815686
0.379901 0.156576 -0.084000 0.101961 0.509804 0.737255
0.380113 0.158564 -0.086000 0.113725 0.560784 0.784314
0.380219 0.160571 -0.087000 0.031373 0.505882 0.725490
0.380219 0.162589 -0.087000 0.015686 0.470588 0.694118
0.380219 0.164607 -0.087000 0.000000 0.427451 0.647059
0.379901 0.166623 -0.084000 0.000000 0.403922 0.615686
0.379796 0.168630 -0.083000 0.000000 0.341176 0.552941
0.379690 0.170631 -0.082000 0.164706 0.576471 0.796078
0.379901 0.172652 -0.084000 0.117647 0.545098 0.768627
0.380219 0.174695 -0.087000 0.090196 0.564706 0.784314
0.380325 0.176727 -0.088000 0.019608 0.501961 0.721569
0.380219 0.178731 -0.087000 0.015686 0.490196 0.709804
0.380007 0.180709 -0.085000 0.011765 0.470588 0.686275
0.379901 0.182699 -0.084000 0.000000 0.431373 0.650980
0.379130 0.129867 -0.096000 0.094118 0.125490 0.113725
0.378820 0.132047 -0.093000 0.000000 0.160784 0.262745
0.378511 0.134211 -0.090000 0.094118 0.411765 0.560784
0.378511 0.136237 -0.090000 0.200000 0.572549 0.756863
0.378511 0.138263 -0.090000 0.000000 0.384314 0.584314
0.378408 0.140324 -0.089000 0.000000 0.384314 0.596078
0.378201 0.142412 -0.087000 0.000000 0.356863 0.580392
0.378098 0.144459 -0.086000 0.133333 0.592157 0.800000
0.378098 0.146474 -0.086000 0.003922 0.470588 0.678431
0.378201 0.148465 -0.087000 0.000000 0.400000 0.611765
0.377995 0.150526 -0.085000 0.000000 0.368627 0.580392
0.377892 0.152557 -0.084000 0.235294 0.615686 0.831373
0.377789 0.154582 -0.083000 0.000000 0.376471 0.592157
0.377686 0.156602 -0.082000 0.000000 0.364706 0.588235
0.377995 0.158575 -0.085000 0.000000 0.313725 0.537255
0.378098 0.160579 -0.086000 0.137255 0.588235 0.803922
0.378305 0.162584 -0.088000 0.000000 0.447059 0.662745
0.378201 0.164607 -0.087000 0.000000 0.415686 0.627451
0.378098 0.166624 -0.086000 0.000000 0.345098 0.560784
0.377995 0.180709 -0.085000 0.003922 0.415686 0.627451
0.377995 0.182722 -0.085000 0.000000 0.345098 0.556863
0.377892 0.184709 -0.084000 0.184314 0.580392 0.792157
0.376887 0.129965 -0.094000 0.082353 0.121569 0.109804
0.376585 0.132139 -0.091000 0.000000 0.184314 0.286275
0.376284 0.134298 -0.088000 0.050980 0.403922 0.560784
0.376284 0.136318 -0.088000 0.211765 0.592157 0.776471
0.376284 0.138339 -0.088000 0.000000 0.309804 0.509804
0.376385 0.140324 -0.089000 0.039216 0.309804 0.533333
0.376284 0.142380 -0.088000 0.000000 0.207843 0.443137
0.376284 0.144400 -0.088000 0.184314 0.596078 0.815686
0.376184 0.146447 -0.087000 0.023529 0.482353 0.698039
0.376184 0.148465 -0.087000 0.003922 0.431373 0.643137
0.375983 0.150526 -0.085000 0.000000 0.364706 0.588235
0.375983 0.152538 -0.085000 0.278431 0.627451 0.843137
0.375882 0.154566 -0.084000 0.000000 0.309804 0.529412
0.375882 0.156576 -0.084000 0.050980 0.333333 0.564706
0.375983 0.158575 -0.085000 0.000000 0.200000 0.439216
0.375983 0.160587 -0.085000 0.176471 0.603922 0.823529
0.376284 0.162584 -0.088000 0.015686 0.490196 0.705882
0.376284 0.164605 -0.088000 0.000000 0.423529 0.643137
0.376284 0.166625 -0.088000 0.000000 0.376471 0.596078
0.376184 0.168642 -0.087000 0.200000 0.592157 0.803922
0.376083 0.170654 -0.086000 0.000000 0.341176 0.556863
0.376184 0.172678 -0.087000 0.039216 0.313725 0.549020
0.375983 0.180709 -0.085000 0.000000 0.411765 0.623529
0.375983 0.182722 -0.085000 0.000000 0.364706 0.576471
0.374850 0.129965 -0.094000 0.090196 0.129412 0.125490
0.374654 0.132093 -0.092000 0.000000 0.196078 0.294118
0.374361 0.134255 -0.089000 0.121569 0.494118 0.647059
0.374361 0.136278 -0.089000 0.031373 0.431373 0.619608
0.374264 0.138339 -0.088000 0.090196 0.466667 0.674510
0.374459 0.140289 -0.090000 0.000000 0.184314 0.419608
0.374361 0.142347 -0.089000 0.000000 0.180392 0.419608
0.374361 0.144370 -0.089000 0.109804 0.607843 0.819608
0.374264 0.146421 -0.088000 0.027451 0.533333 0.745098
0.374166 0.148465 -0.087000 0.035294 0.494118 0.709804
0.373971 0.150526 -0.085000 0.000000 0.450980 0.666667
0.373873 0.152557 -0.084000 0.152941 0.572549 0.792157
0.373971 0.154550 -0.085000 0.000000 0.282353 0.505882
0.374068 0.156549 -0.086000 0.000000 0.176471 0.411765
0.374264 0.158543 -0.088000 0.000000 0.258824 0.498039
0.374068 0.160579 -0.086000 0.098039 0.600000 0.819608
0.374264 0.162584 -0.088000 0.023529 0.525490 0.745098
0.374264 0.164605 -0.088000 0.011765 0.466667 0.690196
0.374264 0.166625 -0.088000 0.000000 0.443137 0.666667
0.374264 0.168645 -0.088000 0.113725 0.549020 0.768627
0.374264 0.170666 -0.088000 0.000000 0.235294 0.450980
0.374264 0.172686 -0.088000 0.000000 0.188235 0.423529
0.373971 0.180709 -0.085000 0.000000 0.450980 0.666667
0.372908 0.129916 -0.095000 0.094118 0.121569 0.129412
0.372623 0.132093 -0.092000 0.000000 0.160784 0.278431
0.372338 0.134255 -0.089000 0.152941 0.525490 0.709804
0.372243 0.136318 -0.088000 0.023529 0.505882 0.725490
0.372243 0.138339 -0.088000 0.047059 0.541176 0.760784
0.372433 0.140289 -0.090000 0.090196 0.596078 0.800000
0.372433 0.142315 -0.090000 0.086275 0.603922 0.803922
0.372433 0.144341 -0.090000 0.035294 0.580392 0.780392
0.372338 0.146394 -0.089000 0.031373 0.564706 0.764706
0.372338 0.148417 -0.089000 0.031373 0.541176 0.737255
0.372148 0.150483 -0.087000 0.015686 0.517647 0.713725
0.372148 0.152501 -0.087000 0.000000 0.498039 0.694118
0.372243 0.154502 -0.088000 0.050980 0.560784 0.756863
0.372338 0.156510 -0.089000 0.105882 0.611765 0.815686
0.372243 0.158543 -0.088000 0.066667 0.592157 0.819608
0.372148 0.160571 -0.087000 0.023529 0.572549 0.800000
0.372148 0.162589 -0.087000 0.023529 0.560784 0.784314
0.372243 0.164605 -0.088000 0.019608 0.521569 0.741176
0.372243 0.166625 -0.088000 0.007843 0.498039 0.717647
0.372338 0.168649 -0.089000 0.007843 0.501961 0.721569
0.372243 0.170666 -0.088000 0.101961 0.560784 0.776471
0.372243 0.172686 -0.088000 0.184314 0.537255 0.768627
0.372053 0.174684 -0.086000 0.164706 0.603922 0.827451
0.372053 0.180729 -0.086000 0.023529 0.505882 0.725490
0.370961 0.131909 -0.096000 0.058824 0.247059 0.349020
0.370776 0.134038 -0.094000 0.321569 0.662745 0.811765
0.370592 0.136156 -0.092000 0.145098 0.611765 0.819608
0.370592 0.138188 -0.092000 0.137255 0.619608 0.835294
0.370592 0.140219 -0.092000 0.129412 0.627451 0.839216
0.370592 0.142250 -0.092000 0.141176 0.635294 0.854902
0.370499 0.144311 -0.091000 0.156863 0.639216 0.854902
0.370407 0.146367 -0.090000 0.172549 0.639216 0.847059
0.370499 0.148369 -0.091000 0.152941 0.631373 0.835294
0.370407 0.150419 -0.090000 0.149020 0.623529 0.839216
0.370407 0.152444 -0.090000 0.129412 0.611765 0.827451
0.370407 0.154470 -0.090000 0.129412 0.619608 0.835294
0.370592 0.156470 -0.092000 0.125490 0.627451 0.847059
0.370684 0.158491 -0.093000 0.109804 0.623529 0.839216
0.370592 0.160533 -0.092000 0.113725 0.627451 0.843137
0.370499 0.162569 -0.091000 0.109804 0.611765 0.831373
0.370407 0.164600 -0.090000 0.145098 0.619608 0.835294
0.370407 0.166626 -0.090000 0.156863 0.623529 0.831373
0.370499 0.168655 -0.091000 0.066667 0.541176 0.760784
0.370407 0.170678 -0.090000 0.078431 0.560784 0.780392
0.370407 0.172704 -0.090000 0.082353 0.580392 0.784314
0.370315 0.174718 -0.089000 0.070588 0.576471 0.788235
0.370499 0.176769 -0.091000 0.043137 0.572549 0.788235
0.370407 0.178781 -0.090000 0.043137 0.556863 0.772549
0.369008 0.133908 -0.097000 0.043137 0.113725 0.133333
0.368918 0.135994 -0.096000 0.039216 0.109804 0.141176
0.368829 0.138074 -0.095000 0.035294 0.105882 0.137255
0.368829 0.140114 -0.095000 0.043137 0.121569 0.152941
0.368739 0.142186 -0.094000 0.054902 0.125490 0.149020
0.368739 0.144222 -0.094000 0.027451 0.125490 0.141176
0.368650 0.146286 -0.093000 0.035294 0.133333 0.149020
0.368918 0.148248 -0.096000 0.035294 0.133333 0.149020
0.368918 0.150290 -0.096000 0.027451 0.133333 0.149020
0.369008 0.152314 -0.097000 0.011765 0.117647 0.133333
0.368918 0.154375 -0.096000 0.031373 0.117647 0.141176
0.369008 0.158449 -0.097000 0.035294 0.113725 0.145098
0.368918 0.162544 -0.096000 0.027451 0.113725 0.137255
0.368918 0.164586 -0.096000 0.031373 0.129412 0.149020
0.368918 0.166628 -0.096000 0.145098 0.454902 0.545098
0.368829 0.170707 -0.095000 0.168627 0.482353 0.603922
0.368829 0.172747 -0.095000 0.223529 0.533333 0.643137
0.340480 0.146125 -0.099000 0.074510 0.105882 0.078431
0.340480 0.148175 -0.099000 0.082353 0.113725 0.086275
0.340480 0.183033 -0.099000 0.090196 0.121569 0.094118
0.338284 0.135994 -0.096000 0.011765 0.062745 0.003922
0.338284 0.138036 -0.096000 0.019608 0.074510 0.003922
0.338187 0.140149 -0.094000 0.019608 0.082353 0.007843
0.338187 0.142186 -0.094000 0.027451 0.090196 0.015686
0.338187 0.144222 -0.094000 0.019608 0.094118 0.015686
0.338187 0.146259 -0.094000 0.027451 0.090196 0.019608
0.338236 0.148272 -0.095000 0.031373 0.094118 0.023529
0.338333 0.150269 -0.097000 0.031373 0.090196 0.031373
0.338430 0.152276 -0.099000 0.027451 0.086275 0.035294
0.338430 0.156377 -0.099000 0.035294 0.094118 0.043137
0.338381 0.158438 -0.098000 0.043137 0.098039 0.054902
0.338333 0.160494 -0.097000 0.043137 0.101961 0.043137
0.338284 0.162544 -0.096000 0.050980 0.101961 0.050980
0.338381 0.164581 -0.098000 0.047059 0.094118 0.050980
0.338430 0.168680 -0.099000 0.050980 0.098039 0.054902
0.338333 0.170719 -0.097000 0.043137 0.090196 0.054902
0.338284 0.172755 -0.096000 0.043137 0.098039 0.054902
0.338333 0.174809 -0.097000 0.043137 0.098039 0.054902
0.338381 0.176868 -0.098000 0.039216 0.094118 0.050980
0.338430 0.178932 -0.099000 0.039216 0.094118 0.050980
0.338333 0.180944 -0.097000 0.039216 0.098039 0.047059
0.338236 0.182944 -0.095000 0.054902 0.105882 0.047059
0.338284 0.185009 -0.096000 0.050980 0.098039 0.062745
0.338236 0.187023 -0.095000 0.058824 0.105882 0.070588
0.338187 0.189033 -0.094000 0.066667 0.113725 0.070588
0.336196 0.131955 -0.095000 0.635294 0.760784 0.447059
0.336150 0.134038 -0.094000 0.568627 0.725490 0.352941
0.336059 0.136156 -0.092000 0.564706 0.717647 0.360784
0.336059 0.138188 -0.092000 0.549020 0.658824 0.423529
0.336013 0.140254 -0.091000 0.525490 0.643137 0.400000
0.335967 0.142315 -0.090000 0.564706 0.686275 0.431373
0.335921 0.144370 -0.089000 0.545098 0.662745 0.419608
0.335967 0.146367 -0.090000 0.545098 0.662745 0.427451
0.336013 0.148369 -0.091000 0.545098 0.654902 0.411765
0.336104 0.150354 -0.093000 0.549020 0.662745 0.407843
0.336196 0.152351 -0.095000 0.533333 0.639216 0.411765
0.336150 0.154407 -0.094000 0.533333 0.639216 0.411765
0.336104 0.156457 -0.093000 0.533333 0.639216 0.411765
0.336059 0.158501 -0.092000 0.529412 0.635294 0.407843
0.336059 0.160533 -0.092000 0.521569 0.627451 0.400000
0.336059 0.162564 -0.092000 0.458824 0.556863 0.337255
0.336150 0.164591 -0.094000 0.498039 0.592157 0.380392
0.336150 0.166627 -0.094000 0.466667 0.560784 0.356863
0.336104 0.168661 -0.093000 0.454902 0.556863 0.352941
0.336013 0.170683 -0.091000 0.450980 0.549020 0.360784
0.335921 0.172695 -0.089000 0.407843 0.509804 0.305882
0.336013 0.174741 -0.091000 0.407843 0.521569 0.305882
0.336059 0.176783 -0.092000 0.384314 0.482353 0.286275
0.336196 0.178865 -0.095000 0.400000 0.501961 0.298039
0.336104 0.180866 -0.093000 0.360784 0.462745 0.250980
0.336013 0.182855 -0.091000 0.368627 0.470588 0.266667
0.336013 0.184884 -0.091000 0.349020 0.439216 0.250980
0.335967 0.186885 -0.090000 0.349020 0.435294 0.254902
0.335967 0.188911 -0.090000 0.019608 0.117647 0.000000
0.335967 0.190937 -0.090000 0.031373 0.117647 0.000000
0.334286 0.129770 -0.098000 0.035294 0.094118 0.035294
0.334113 0.132001 -0.094000 0.545098 0.686275 0.345098
0.334027 0.134125 -0.092000 0.423529 0.588235 0.200000
0.333941 0.136237 -0.090000 0.380392 0.545098 0.160784
0.333941 0.138263 -0.090000 0.423529 0.584314 0.211765
0.333941 0.140289 -0.090000 0.509804 0.674510 0.290196
0.333898 0.142347 -0.089000 0.560784 0.737255 0.298039
0.333898 0.144370 -0.089000 0.545098 0.725490 0.270588
0.333898 0.146394 -0.089000 0.541176 0.709804 0.282353
0.333984 0.148369 -0.091000 0.541176 0.713725 0.290196
0.334070 0.150354 -0.093000 0.501961 0.674510 0.250980
0.334070 0.152388 -0.093000 0.419608 0.596078 0.192157
0.333984 0.154454 -0.091000 0.458824 0.635294 0.231373
0.333855 0.156523 -0.088000 0.537255 0.717647 0.301961
0.333855 0.158543 -0.088000 0.584314 0.756863 0.317647
0.333898 0.160556 -0.089000 0.572549 0.745098 0.301961
0.333984 0.162569 -0.091000 0.560784 0.733333 0.290196
0.334027 0.164595 -0.092000 0.545098 0.713725 0.290196
0.334027 0.166627 -0.092000 0.521569 0.686275 0.274510
0.333941 0.168652 -0.090000 0.419608 0.580392 0.196078
0.333898 0.170672 -0.089000 0.505882 0.674510 0.270588
0.333855 0.172686 -0.088000 0.572549 0.745098 0.321569
0.333898 0.174718 -0.089000 0.600000 0.780392 0.309804
0.333941 0.176755 -0.090000 0.592157 0.768627 0.309804
0.334027 0.178815 -0.092000 0.572549 0.745098 0.301961
0.334027 0.180846 -0.092000 0.552941 0.725490 0.301961
0.333941 0.182833 -0.090000 0.513725 0.682353 0.282353
0.333855 0.184809 -0.088000 0.490196 0.647059 0.278431
0.333855 0.186829 -0.088000 0.513725 0.670588 0.298039
0.333898 0.188880 -0.089000 0.615686 0.768627 0.411765
0.332278 0.129721 -0.099000 0.039216 0.101961 0.031373
0.332036 0.132047 -0.093000 0.443137 0.592157 0.258824
0.331955 0.134168 -0.091000 0.364706 0.545098 0.168627
0.331875 0.136278 -0.089000 0.603922 0.776471 0.392157
0.331875 0.138301 -0.089000 0.600000 0.776471 0.376471
0.331915 0.140289 -0.090000 0.611765 0.780392 0.376471
0.331875 0.142347 -0.089000 0.545098 0.717647 0.294118
0.331875 0.144370 -0.089000 0.525490 0.694118 0.270588
0.331915 0.146367 -0.090000 0.466667 0.639216 0.215686
0.331955 0.148369 -0.091000 0.450980 0.623529 0.200000
0.331996 0.150376 -0.092000 0.360784 0.541176 0.125490
0.331915 0.152444 -0.090000 0.596078 0.784314 0.376471
0.331875 0.154486 -0.089000 0.580392 0.768627 0.352941
0.331794 0.156536 -0.087000 0.588235 0.768627 0.345098
0.331794 0.158554 -0.087000 0.552941 0.725490 0.301961
0.331834 0.160564 -0.088000 0.494118 0.662745 0.235294
0.331915 0.162574 -0.090000 0.490196 0.658824 0.235294
0.331955 0.164598 -0.091000 0.415686 0.584314 0.160784
0.331955 0.166626 -0.091000 0.352941 0.521569 0.117647
0.331875 0.168649 -0.089000 0.584314 0.760784 0.356863
0.331834 0.170666 -0.088000 0.600000 0.780392 0.356863
0.331834 0.172686 -0.088000 0.592157 0.772549 0.349020
0.331875 0.174718 -0.089000 0.545098 0.721569 0.282353
0.331875 0.176741 -0.089000 0.509804 0.686275 0.247059
0.331915 0.178781 -0.090000 0.498039 0.670588 0.247059
0.331915 0.180807 -0.090000 0.450980 0.619608 0.215686
0.331834 0.182789 -0.088000 0.415686 0.588235 0.200000
0.331794 0.184784 -0.087000 0.588235 0.760784 0.372549
0.331754 0.186774 -0.086000 0.576471 0.752941 0.352941
0.331834 0.188850 -0.088000 0.549020 0.729412 0.305882
0.331915 0.190937 -0.090000 0.560784 0.745098 0.313725
0.330228 0.129721 -0.099000 0.043137 0.105882 0.035294
0.330002 0.132047 -0.093000 0.431373 0.580392 0.247059
0.329927 0.134168 -0.091000 0.619608 0.796078 0.435294
0.329889 0.136237 -0.090000 0.376471 0.564706 0.188235
0.329927 0.138225 -0.091000 0.392157 0.580392 0.196078
0.329964 0.140219 -0.092000 0.298039 0.474510 0.074510
0.329927 0.142283 -0.091000 0.635294 0.807843 0.384314
0.329964 0.144282 -0.092000 0.513725 0.694118 0.235294
0.329964 0.146313 -0.092000 0.439216 0.615686 0.184314
0.330002 0.148320 -0.093000 0.360784 0.545098 0.113725
0.330002 0.150354 -0.093000 0.619608 0.811765 0.411765
0.329927 0.152426 -0.091000 0.349020 0.552941 0.145098
0.329889 0.154470 -0.090000 0.376471 0.576471 0.184314
0.329852 0.156510 -0.089000 0.309804 0.501961 0.101961
0.329852 0.158533 -0.089000 0.627451 0.807843 0.384314
0.329852 0.160556 -0.089000 0.486275 0.662745 0.223529
0.329889 0.162574 -0.090000 0.447059 0.627451 0.203922
0.329927 0.164598 -0.091000 0.356863 0.537255 0.121569
0.329927 0.166626 -0.091000 0.639216 0.823529 0.431373
0.329889 0.168652 -0.090000 0.368627 0.560784 0.160784
0.329852 0.170672 -0.089000 0.364706 0.556863 0.156863
0.329852 0.172695 -0.089000 0.411765 0.600000 0.192157
0.329852 0.174718 -0.089000 0.576471 0.760784 0.329412
0.329889 0.176755 -0.090000 0.505882 0.690196 0.258824
0.329927 0.178798 -0.091000 0.439216 0.619608 0.196078
0.329927 0.180827 -0.091000 0.364706 0.541176 0.137255
0.329889 0.182833 -0.090000 0.639216 0.823529 0.431373
0.329776 0.184784 -0.087000 0.392157 0.576471 0.184314
0.329739 0.186774 -0.086000 0.364706 0.541176 0.141176
0.329776 0.188819 -0.087000 0.635294 0.823529 0.407843
0.329964 0.191003 -0.092000 0.615686 0.796078 0.372549
0.330115 0.193178 -0.096000 0.690196 0.839216 0.505882
0.328177 0.129721 -0.099000 0.019608 0.078431 0.019608
0.328003 0.132001 -0.094000 0.447059 0.596078 0.254902
0.327898 0.134168 -0.091000 0.635294 0.811765 0.443137
0.327863 0.136237 -0.090000 0.219608 0.407843 0.031373
0.327898 0.138225 -0.091000 0.286275 0.466667 0.117647
0.327933 0.140219 -0.092000 0.164706 0.329412 0.000000
0.327933 0.142250 -0.092000 0.654902 0.827451 0.403922
0.327933 0.144282 -0.092000 0.560784 0.741176 0.262745
0.327968 0.146286 -0.093000 0.466667 0.647059 0.200000
0.327933 0.148344 -0.092000 0.396078 0.580392 0.141176
0.327933 0.150376 -0.092000 0.627451 0.819608 0.427451
0.327933 0.152407 -0.092000 0.294118 0.486275 0.094118
0.327898 0.154454 -0.091000 0.286275 0.466667 0.117647
0.327898 0.156483 -0.091000 0.160784 0.333333 0.000000
0.327863 0.158522 -0.090000 0.658824 0.831373 0.415686
0.327863 0.160548 -0.090000 0.533333 0.713725 0.266667
0.327828 0.162579 -0.089000 0.466667 0.643137 0.211765
0.327863 0.164600 -0.090000 0.419608 0.592157 0.168627
0.327863 0.166626 -0.090000 0.513725 0.690196 0.329412
0.327863 0.168652 -0.090000 0.305882 0.494118 0.109804
0.327828 0.170672 -0.089000 0.278431 0.462745 0.101961
0.327828 0.172695 -0.089000 0.203922 0.380392 0.011765
0.327828 0.174718 -0.089000 0.654902 0.835294 0.411765
0.327863 0.176755 -0.090000 0.505882 0.682353 0.243137
0.327898 0.178798 -0.091000 0.458824 0.643137 0.211765
0.327863 0.180807 -0.090000 0.384314 0.564706 0.149020
0.327793 0.182789 -0.088000 0.439216 0.619608 0.243137
0.327759 0.184784 -0.087000 0.384314 0.572549 0.188235
0.327759 0.186802 -0.087000 0.360784 0.541176 0.164706
0.327793 0.188850 -0.088000 0.419608 0.600000 0.223529
0.327898 0.190970 -0.091000 0.650980 0.839216 0.431373
0.328073 0.193178 -0.096000 0.709804 0.850980 0.541176
0.326127 0.129721 -0.099000 0.015686 0.078431 0.007843
0.325966 0.132001 -0.094000 0.537255 0.698039 0.309804
0.325870 0.134168 -0.091000 0.537255 0.725490 0.270588
0.325870 0.136197 -0.091000 0.407843 0.584314 0.184314
0.325902 0.138188 -0.092000 0.156863 0.313725 0.000000
0.325902 0.140219 -0.092000 0.352941 0.517647 0.117647
0.325870 0.142283 -0.091000 0.662745 0.854902 0.337255
0.325870 0.144311 -0.091000 0.600000 0.792157 0.266667
0.325870 0.146340 -0.091000 0.560784 0.745098 0.250980
0.325870 0.148369 -0.091000 0.474510 0.654902 0.176471
0.325902 0.150376 -0.092000 0.631373 0.823529 0.360784
0.325934 0.152388 -0.093000 0.188235 0.368627 0.000000
0.325934 0.154422 -0.093000 0.152941 0.313725 0.000000
0.325902 0.156470 -0.092000 0.482353 0.650980 0.250980
0.325870 0.158512 -0.091000 0.650980 0.835294 0.341176
0.325837 0.160548 -0.090000 0.588235 0.772549 0.278431
0.325837 0.162574 -0.090000 0.533333 0.717647 0.247059
0.325870 0.164598 -0.091000 0.443137 0.623529 0.145098
0.325870 0.166626 -0.091000 0.635294 0.811765 0.372549
0.325870 0.168655 -0.091000 0.172549 0.345098 0.000000
0.325837 0.170678 -0.090000 0.145098 0.298039 0.000000
0.325837 0.172704 -0.090000 0.552941 0.721569 0.317647
0.325837 0.174729 -0.090000 0.639216 0.823529 0.337255
0.325837 0.176755 -0.090000 0.568627 0.752941 0.258824
0.325870 0.178798 -0.091000 0.537255 0.721569 0.235294
0.325837 0.180807 -0.090000 0.439216 0.611765 0.188235
0.325805 0.182811 -0.089000 0.490196 0.674510 0.282353
0.325773 0.184809 -0.088000 0.188235 0.364706 0.003922
0.325741 0.186802 -0.087000 0.176471 0.337255 0.003922
0.325773 0.188850 -0.088000 0.592157 0.772549 0.396078
0.325870 0.190970 -0.091000 0.674510 0.850980 0.447059
0.325998 0.193142 -0.095000 0.725490 0.866667 0.556863
0.324047 0.129770 -0.098000 0.007843 0.082353 0.003922
0.323929 0.132001 -0.094000 0.596078 0.760784 0.360784
0.323870 0.134125 -0.092000 0.580392 0.764706 0.286275
0.323811 0.136237 -0.090000 0.623529 0.807843 0.329412
0.323841 0.138225 -0.091000 0.670588 0.850980 0.380392
0.323841 0.140254 -0.091000 0.674510 0.858824 0.364706
0.323841 0.142283 -0.091000 0.650980 0.835294 0.309804
0.323811 0.144341 -0.090000 0.627451 0.811765 0.286275
0.323811 0.146367 -0.090000 0.607843 0.792157 0.266667
0.323811 0.148393 -0.090000 0.600000 0.788235 0.278431
0.323841 0.150397 -0.091000 0.596078 0.784314 0.282353
0.323870 0.152407 -0.092000 0.639216 0.819608 0.341176
0.323870 0.154438 -0.092000 0.670588 0.847059 0.392157
0.323841 0.156483 -0.091000 0.662745 0.839216 0.380392
0.323841 0.158512 -0.091000 0.639216 0.831373 0.313725
0.323841 0.160540 -0.091000 0.607843 0.796078 0.286275
0.323870 0.162564 -0.092000 0.592157 0.772549 0.294118
0.323900 0.164593 -0.093000 0.596078 0.780392 0.294118
0.323870 0.166627 -0.092000 0.592157 0.772549 0.294118
0.323841 0.168655 -0.091000 0.650980 0.823529 0.380392
0.323841 0.170683 -0.091000 0.674510 0.847059 0.403922
0.323841 0.172712 -0.091000 0.647059 0.827451 0.349020
0.323841 0.174741 -0.091000 0.635294 0.823529 0.321569
0.323841 0.176769 -0.091000 0.611765 0.796078 0.309804
0.323811 0.178781 -0.090000 0.576471 0.760784 0.274510
0.323811 0.180807 -0.090000 0.549020 0.729412 0.250980
0.323782 0.182811 -0.089000 0.623529 0.807843 0.337255
0.323782 0.184834 -0.089000 0.596078 0.776471 0.329412
0.323753 0.186829 -0.088000 0.643137 0.815686 0.376471
0.323782 0.188880 -0.089000 0.678431 0.862745 0.384314
0.323870 0.191003 -0.092000 0.650980 0.835294 0.356863
0.324018 0.193214 -0.097000 0.733333 0.878431 0.560784
0.321999 0.129770 -0.098000 0.003922 0.078431 0.000000
0.321892 0.132001 -0.094000 0.631373 0.796078 0.392157
0.321839 0.134125 -0.092000 0.619608 0.800000 0.321569
0.321786 0.136237 -0.090000 0.627451 0.807843 0.329412
0.321812 0.138225 -0.091000 0.631373 0.819608 0.317647
0.321786 0.140289 -0.090000 0.635294 0.823529 0.321569
0.321812 0.142283 -0.091000 0.643137 0.823529 0.309804
0.321812 0.144311 -0.091000 0.639216 0.823529 0.298039
0.321839 0.146313 -0.092000 0.635294 0.815686 0.301961
0.321812 0.148369 -0.091000 0.627451 0.807843 0.294118
0.321839 0.150376 -0.092000 0.611765 0.796078 0.301961
0.321866 0.152388 -0.093000 0.623529 0.807843 0.321569
0.321866 0.154422 -0.093000 0.631373 0.815686 0.329412
0.321866 0.156457 -0.093000 0.631373 0.811765 0.333333
0.321839 0.158501 -0.092000 0.619608 0.803922 0.317647
0.321839 0.160533 -0.092000 0.678431 0.862745 0.368627
0.321866 0.162559 -0.093000 0.600000 0.784314 0.290196
0.321866 0.164593 -0.093000 0.607843 0.792157 0.305882
0.321866 0.166627 -0.093000 0.615686 0.796078 0.317647
0.321812 0.168655 -0.091000 0.639216 0.811765 0.329412
0.321812 0.170683 -0.091000 0.639216 0.815686 0.321569
0.321812 0.172712 -0.091000 0.643137 0.819608 0.325490
0.321812 0.174741 -0.091000 0.639216 0.815686 0.317647
0.321812 0.176769 -0.091000 0.631373 0.807843 0.309804
0.321812 0.178798 -0.091000 0.623529 0.807843 0.321569
0.321839 0.180846 -0.092000 0.611765 0.792157 0.313725
0.321786 0.182833 -0.090000 0.615686 0.796078 0.317647
0.321786 0.184859 -0.090000 0.635294 0.815686 0.337255
0.321732 0.186829 -0.088000 0.647059 0.831373 0.345098
0.321759 0.188880 -0.089000 0.650980 0.839216 0.345098
0.321839 0.191003 -0.092000 0.650980 0.835294 0.349020
0.319928 0.129818 -0.097000 0.298039 0.419608 0.160784
0.319832 0.132047 -0.093000 0.607843 0.764706 0.352941
0.319808 0.134125 -0.092000 0.584314 0.764706 0.286275
0.319760 0.136237 -0.090000 0.600000 0.780392 0.301961
0.319784 0.138225 -0.091000 0.596078 0.780392 0.294118
0.319736 0.140324 -0.089000 0.596078 0.780392 0.286275
0.319784 0.142283 -0.091000 0.619608 0.807843 0.305882
0.319784 0.144311 -0.091000 0.607843 0.796078 0.286275
0.319808 0.146313 -0.092000 0.592157 0.780392 0.270588
0.319808 0.148344 -0.092000 0.588235 0.776471 0.266667
0.319808 0.150376 -0.092000 0.607843 0.792157 0.305882
0.319832 0.152388 -0.093000 0.596078 0.776471 0.298039
0.319832 0.154422 -0.093000 0.588235 0.768627 0.290196
0.319832 0.156457 -0.093000 0.611765 0.792157 0.313725
0.319832 0.158491 -0.093000 0.623529 0.803922 0.325490
0.319832 0.160525 -0.093000 0.603922 0.788235 0.301961
0.319856 0.162554 -0.094000 0.494118 0.678431 0.192157
0.319880 0.164588 -0.095000 0.588235 0.768627 0.290196
0.319856 0.166627 -0.094000 0.600000 0.780392 0.301961
0.319784 0.168655 -0.091000 0.607843 0.788235 0.309804
0.319760 0.170678 -0.090000 0.603922 0.788235 0.301961
0.319760 0.172704 -0.090000 0.615686 0.800000 0.313725
0.319784 0.174741 -0.091000 0.631373 0.807843 0.313725
0.319808 0.176783 -0.092000 0.627451 0.803922 0.309804
0.319808 0.178815 -0.092000 0.615686 0.800000 0.313725
0.319784 0.180827 -0.091000 0.615686 0.796078 0.317647
0.319736 0.182811 -0.089000 0.623529 0.803922 0.325490
0.319736 0.184834 -0.089000 0.643137 0.823529 0.345098
0.319688 0.186802 -0.087000 0.639216 0.819608 0.349020
0.319712 0.188850 -0.088000 0.635294 0.815686 0.337255
0.319784 0.190970 -0.091000 0.631373 0.811765 0.341176
0.317904 0.129770 -0.098000 0.321569 0.435294 0.176471
0.317819 0.132001 -0.094000 0.564706 0.725490 0.341176
0.317798 0.134082 -0.093000 0.443137 0.631373 0.184314
0.317755 0.136197 -0.091000 0.392157 0.576471 0.145098
0.317776 0.138188 -0.092000 0.458824 0.639216 0.184314
0.317734 0.140289 -0.090000 0.545098 0.725490 0.266667
0.317755 0.142283 -0.091000 0.576471 0.756863 0.278431
0.317755 0.144311 -0.091000 0.576471 0.756863 0.278431
0.317776 0.146313 -0.092000 0.529412 0.709804 0.231373
0.317798 0.148320 -0.093000 0.521569 0.701961 0.231373
0.317798 0.150354 -0.093000 0.435294 0.623529 0.168627
0.317798 0.152388 -0.093000 0.396078 0.584314 0.137255
0.317798 0.154422 -0.093000 0.474510 0.670588 0.223529
0.317798 0.156457 -0.093000 0.541176 0.729412 0.282353
0.317819 0.158480 -0.094000 0.572549 0.752941 0.298039
0.317798 0.160525 -0.093000 0.549020 0.725490 0.266667
0.317819 0.162554 -0.094000 0.541176 0.717647 0.258824
0.317798 0.164593 -0.093000 0.521569 0.698039 0.243137
0.317819 0.166627 -0.094000 0.470588 0.650980 0.196078
0.317755 0.168655 -0.091000 0.431373 0.619608 0.164706
0.317755 0.170683 -0.091000 0.509804 0.690196 0.231373
0.317713 0.172695 -0.089000 0.580392 0.760784 0.301961
0.317755 0.174741 -0.091000 0.603922 0.788235 0.301961
0.317798 0.176798 -0.093000 0.588235 0.768627 0.290196
0.317798 0.178832 -0.093000 0.576471 0.756863 0.278431
0.317776 0.180846 -0.092000 0.584314 0.764706 0.294118
0.317755 0.182855 -0.091000 0.529412 0.705882 0.247059
0.317691 0.184809 -0.088000 0.529412 0.705882 0.250980
0.317713 0.186857 -0.089000 0.568627 0.745098 0.290196
0.317691 0.188850 -0.088000 0.607843 0.792157 0.321569
0.317819 0.191069 -0.094000 0.623529 0.800000 0.341176
0.315837 0.129818 -0.097000 0.360784 0.466667 0.247059
0.315782 0.132001 -0.094000 0.443137 0.592157 0.258824
0.315763 0.134082 -0.093000 0.388235 0.568627 0.145098
0.315745 0.136156 -0.092000 0.627451 0.815686 0.392157
0.315745 0.138188 -0.092000 0.407843 0.600000 0.168627
0.315745 0.140219 -0.092000 0.623529 0.807843 0.368627
0.315726 0.142283 -0.091000 0.576471 0.756863 0.298039
0.315726 0.144311 -0.091000 0.517647 0.701961 0.231373
0.315726 0.146340 -0.091000 0.470588 0.650980 0.192157
0.315763 0.148320 -0.093000 0.411765 0.592157 0.137255
0.315782 0.150333 -0.094000 0.521569 0.713725 0.282353
0.315782 0.152370 -0.094000 0.552941 0.741176 0.317647
0.315763 0.154422 -0.093000 0.462745 0.662745 0.231373
0.315763 0.156457 -0.093000 0.619608 0.811765 0.380392
0.315763 0.158491 -0.093000 0.560784 0.741176 0.294118
0.315763 0.160525 -0.093000 0.513725 0.686275 0.243137
0.315763 0.162559 -0.093000 0.478431 0.654902 0.200000
0.315745 0.164595 -0.092000 0.376471 0.556863 0.109804
0.315782 0.166627 -0.094000 0.431373 0.615686 0.184314
0.315763 0.168661 -0.093000 0.513725 0.705882 0.274510
0.315726 0.170683 -0.091000 0.517647 0.705882 0.258824
0.315708 0.172704 -0.090000 0.572549 0.760784 0.313725
0.315745 0.174752 -0.092000 0.568627 0.745098 0.286275
0.315763 0.176798 -0.093000 0.545098 0.721569 0.262745
0.315763 0.178832 -0.093000 0.521569 0.698039 0.243137
0.315745 0.180846 -0.092000 0.400000 0.576471 0.137255
0.315726 0.182855 -0.091000 0.447059 0.627451 0.203922
0.315689 0.184834 -0.089000 0.607843 0.788235 0.364706
0.315708 0.186885 -0.090000 0.623529 0.800000 0.368627
0.315708 0.188911 -0.090000 0.584314 0.772549 0.317647
0.315800 0.191103 -0.095000 0.596078 0.772549 0.317647
0.313792 0.129818 -0.097000 0.380392 0.498039 0.266667
0.313745 0.132001 -0.094000 0.415686 0.572549 0.200000
0.313745 0.134038 -0.094000 0.635294 0.815686 0.439216
0.313729 0.136116 -0.093000 0.384314 0.580392 0.172549
0.313714 0.138188 -0.092000 0.396078 0.588235 0.188235
0.313698 0.140254 -0.091000 0.254902 0.439216 0.039216
0.313714 0.142250 -0.092000 0.635294 0.823529 0.368627
0.313682 0.144341 -0.090000 0.521569 0.705882 0.227451
0.313698 0.146340 -0.091000 0.454902 0.643137 0.196078
0.313729 0.148320 -0.093000 0.396078 0.580392 0.149020
0.313745 0.150333 -0.094000 0.627451 0.819608 0.427451
0.313745 0.152370 -0.094000 0.368627 0.572549 0.164706
0.313729 0.154422 -0.093000 0.372549 0.572549 0.172549
0.313714 0.156470 -0.092000 0.270588 0.454902 0.062745
0.313714 0.158501 -0.092000 0.627451 0.815686 0.360784
0.313698 0.160540 -0.091000 0.494118 0.678431 0.207843
0.313698 0.162569 -0.091000 0.454902 0.631373 0.192157
0.313698 0.164598 -0.091000 0.400000 0.572549 0.149020
0.313714 0.166627 -0.092000 0.537255 0.725490 0.301961
0.313714 0.168658 -0.092000 0.392157 0.580392 0.172549
0.313714 0.170689 -0.092000 0.372549 0.560784 0.137255
0.313698 0.172712 -0.091000 0.607843 0.792157 0.360784
0.313729 0.174763 -0.093000 0.552941 0.733333 0.278431
0.313745 0.176812 -0.094000 0.505882 0.678431 0.235294
0.313745 0.178848 -0.094000 0.466667 0.639216 0.196078
0.313729 0.180866 -0.093000 0.368627 0.549020 0.125490
0.313729 0.182900 -0.093000 0.639216 0.819608 0.396078
0.313682 0.184859 -0.090000 0.400000 0.588235 0.172549
0.313682 0.186885 -0.090000 0.380392 0.560784 0.137255
0.313682 0.188911 -0.090000 0.631373 0.823529 0.392157
0.313761 0.191103 -0.095000 0.631373 0.803922 0.364706
0.311734 0.129867 -0.096000 0.376471 0.498039 0.243137
0.311695 0.132047 -0.093000 0.443137 0.603922 0.219608
0.311695 0.134082 -0.093000 0.631373 0.815686 0.423529
0.311682 0.136156 -0.092000 0.180392 0.372549 0.000000
0.311682 0.138188 -0.092000 0.192157 0.368627 0.047059
0.311669 0.140254 -0.091000 0.129412 0.298039 0.000000
0.311682 0.142250 -0.092000 0.678431 0.858824 0.400000
0.311669 0.144311 -0.091000 0.568627 0.756863 0.270588
0.311682 0.146313 -0.092000 0.490196 0.670588 0.211765
0.311695 0.148320 -0.093000 0.431373 0.611765 0.164706
0.311695 0.150354 -0.093000 0.639216 0.819608 0.443137
0.311695 0.152388 -0.093000 0.211765 0.396078 0.027451
0.311695 0.154422 -0.093000 0.200000 0.376471 0.047059
0.311695 0.156457 -0.093000 0.172549 0.345098 0.000000
0.311682 0.158501 -0.092000 0.678431 0.858824 0.403922
0.311669 0.160540 -0.091000 0.537255 0.721569 0.243137
0.311682 0.162564 -0.092000 0.486275 0.666667 0.219608
0.311682 0.164595 -0.092000 0.450980 0.627451 0.196078
0.311695 0.166627 -0.093000 0.439216 0.627451 0.219608
0.311695 0.168661 -0.093000 0.341176 0.517647 0.156863
0.311669 0.170683 -0.091000 0.274510 0.443137 0.109804
0.311669 0.172712 -0.091000 0.317647 0.490196 0.105882
0.311682 0.174752 -0.092000 0.623529 0.807843 0.337255
0.311708 0.176812 -0.094000 0.521569 0.701961 0.243137
0.311695 0.178832 -0.093000 0.454902 0.631373 0.192157
0.311695 0.180866 -0.093000 0.403922 0.584314 0.160784
0.311682 0.182878 -0.092000 0.368627 0.552941 0.152941
0.311669 0.184884 -0.091000 0.360784 0.545098 0.145098
0.311656 0.186885 -0.090000 0.282353 0.454902 0.105882
0.311656 0.188911 -0.090000 0.529412 0.721569 0.321569
0.311695 0.191036 -0.093000 0.650980 0.839216 0.415686
0.311761 0.193250 -0.098000 0.639216 0.831373 0.568627
0.309713 0.129770 -0.098000 0.392157 0.513725 0.254902
0.309682 0.131955 -0.095000 0.552941 0.717647 0.305882
0.309671 0.134038 -0.094000 0.556863 0.752941 0.270588
0.309651 0.136156 -0.092000 0.568627 0.760784 0.329412
0.309661 0.138150 -0.093000 0.207843 0.388235 0.000000
0.309640 0.140254 -0.091000 0.666667 0.847059 0.392157
0.309640 0.142283 -0.091000 0.658824 0.850980 0.325490
0.309640 0.144311 -0.091000 0.603922 0.800000 0.258824
0.309661 0.146286 -0.093000 0.568627 0.760784 0.243137
0.309671 0.148296 -0.094000 0.545098 0.729412 0.235294
0.309661 0.150354 -0.093000 0.607843 0.803922 0.309804
0.309661 0.152388 -0.093000 0.400000 0.588235 0.133333
0.309661 0.154422 -0.093000 0.192157 0.372549 0.000000
0.309661 0.156457 -0.093000 0.682353 0.866667 0.427451
0.309651 0.158501 -0.092000 0.639216 0.831373 0.329412
0.309640 0.160540 -0.091000 0.584314 0.772549 0.278431
0.309640 0.162569 -0.091000 0.545098 0.729412 0.258824
0.309640 0.164598 -0.091000 0.501961 0.686275 0.207843
0.309651 0.166627 -0.092000 0.619608 0.807843 0.352941
0.309651 0.168658 -0.092000 0.172549 0.341176 0.000000
0.309651 0.170689 -0.092000 0.176471 0.337255 0.007843
0.309651 0.172721 -0.092000 0.619608 0.792157 0.376471
0.309671 0.174775 -0.094000 0.639216 0.823529 0.345098
0.309671 0.176812 -0.094000 0.572549 0.756863 0.278431
0.309671 0.178848 -0.094000 0.537255 0.717647 0.247059
0.309661 0.180866 -0.093000 0.505882 0.686275 0.239216
0.309651 0.182878 -0.092000 0.454902 0.635294 0.219608
0.309640 0.184884 -0.091000 0.180392 0.349020 0.000000
0.309630 0.186885 -0.090000 0.184314 0.349020 0.000000
0.309640 0.188941 -0.091000 0.678431 0.866667 0.450980
0.309661 0.191036 -0.093000 0.635294 0.827451 0.388235
0.309692 0.193178 -0.096000 0.643137 0.835294 0.572549
0.307673 0.129721 -0.099000 0.388235 0.521569 0.258824
0.307657 0.131863 -0.097000 0.611765 0.776471 0.372549
0.307650 0.133952 -0.096000 0.564706 0.776471 0.294118
0.307642 0.136035 -0.095000 0.584314 0.792157 0.329412
0.307642 0.138074 -0.095000 0.627451 0.835294 0.372549
0.307627 0.140184 -0.093000 0.627451 0.839216 0.356863
0.307627 0.142218 -0.093000 0.654902 0.831373 0.305882
0.307627 0.144252 -0.093000 0.627451 0.811765 0.278431
0.307642 0.146232 -0.095000 0.588235 0.788235 0.286275
0.307642 0.148272 -0.095000 0.588235 0.776471 0.282353
0.307635 0.150333 -0.094000 0.572549 0.788235 0.290196
0.307635 0.152370 -0.094000 0.627451 0.811765 0.333333
0.307627 0.154422 -0.093000 0.631373 0.839216 0.380392
0.307627 0.156457 -0.093000 0.627451 0.839216 0.356863
0.307627 0.158491 -0.093000 0.619608 0.831373 0.345098
0.307627 0.160525 -0.093000 0.592157 0.803922 0.321569
0.307627 0.162559 -0.093000 0.572549 0.776471 0.294118
0.307627 0.164593 -0.093000 0.564706 0.776471 0.290196
0.307635 0.166627 -0.094000 0.568627 0.780392 0.298039
0.307627 0.168661 -0.093000 0.623529 0.831373 0.360784
0.307635 0.170701 -0.094000 0.639216 0.850980 0.368627
0.307627 0.172729 -0.093000 0.627451 0.839216 0.356863
0.307635 0.174775 -0.094000 0.596078 0.815686 0.301961
0.307635 0.176812 -0.094000 0.572549 0.780392 0.278431
0.307635 0.178848 -0.094000 0.568627 0.772549 0.286275
0.307635 0.180885 -0.094000 0.556863 0.760784 0.278431
0.307635 0.182922 -0.094000 0.556863 0.760784 0.278431
0.307635 0.184959 -0.094000 0.627451 0.823529 0.376471
0.307627 0.186968 -0.093000 0.670588 0.854902 0.423529
0.307635 0.189033 -0.094000 0.647059 0.854902 0.384314
0.307642 0.191103 -0.095000 0.643137 0.835294 0.364706
0.307665 0.193250 -0.098000 0.639216 0.823529 0.572549
0.305627 0.133779 -0.100000 0.631373 0.749020 0.564706
0.305622 0.135872 -0.099000 0.650980 0.772549 0.572549
0.305627 0.137885 -0.100000 0.654902 0.780392 0.572549
0.305617 0.140008 -0.098000 0.560784 0.784314 0.560784
0.305612 0.142089 -0.097000 0.572549 0.800000 0.592157
0.305608 0.144163 -0.096000 0.568627 0.796078 0.596078
0.305617 0.146152 -0.098000 0.572549 0.792157 0.584314
0.305617 0.148199 -0.098000 0.576471 0.784314 0.592157
0.305617 0.150247 -0.098000 0.568627 0.780392 0.580392
0.305612 0.152314 -0.097000 0.603922 0.807843 0.596078
0.305603 0.154391 -0.095000 0.619608 0.819608 0.596078
0.305608 0.156417 -0.096000 0.607843 0.827451 0.596078
0.305612 0.158449 -0.097000 0.596078 0.823529 0.584314
0.305617 0.160486 -0.098000 0.588235 0.815686 0.576471
0.305612 0.162539 -0.097000 0.592157 0.803922 0.564706
0.305612 0.164584 -0.097000 0.654902 0.850980 0.403922
0.305612 0.166629 -0.097000 0.650980 0.850980 0.388235
0.305612 0.168674 -0.097000 0.654902 0.862745 0.392157
